ply
format ascii 1.0
comment Created by CloudCompare v2.11.1 (Anoia)
comment Created 2024/7/30 下午7:58
obj_info Generated by CloudCompare!
element vertex 876
property float x
property float y
property float z
property float nx
property float ny
property float nz
end_header
-7.49376 13.0033 1 0.000977516 0.000977516 0.999999 
-10.01 13.2349 1 0.000977516 0.000977516 0.999999 
-8.27152 13.2103 1 0.000977516 0.000977516 0.999999 
-11.9423 13.3234 1 0.000977516 0.000977516 0.999999 
-13.1711 13.3476 1 0.000977516 0.000977516 0.999999 
-14.6337 13.064 1 0.000977516 0.000977516 0.999999 
-9.85391 13.2501 1 0.000977516 0.000977516 0.999999 
-10.9081 13.2335 1 0.000977516 0.000977516 0.999999 
-12.3627 13.3461 1 0.000977516 0.000977516 0.999999 
-10.1965 13.2503 1 0.000977516 0.000977516 0.999999 
-8.44545 13.0764 1 0.000977516 0.000977516 0.999999 
-2.74167 13.0213 1 0.000977516 0.000977516 0.999999 
-8.88297 13.0971 1 0.000977516 0.000977516 0.999999 
-9.95494 13.0258 1 0.000977516 0.000977516 0.999999 
-10.2089 13.0947 1 0.000977516 0.000977516 0.999999 
-7.035 13.1553 1 0.000977516 0.000977516 0.999999 
-13.7885 13.2534 1 0.000977516 0.000977516 0.999999 
-5.82879 13.0323 1 0.000977516 0.000977516 0.999999 
-11.2624 13.0883 1 0.000977516 0.000977516 0.999999 
-4.81739 13.0023 1 0.000977516 0.000977516 0.999999 
-9.08134 13.1639 1 0.000977516 0.000977516 0.999999 
-7.16607 13.0763 1 0.000977516 0.000977516 0.999999 
-13.3922 13.1773 1 0.000977516 0.000977516 0.999999 
-10.7274 13.1775 1 0.000977516 0.000977516 0.999999 
-11.9145 13.0566 1 0.000977516 0.000977516 0.999999 
-4.48199 13.016 1 0.000977516 0.000977516 0.999999 
-11.8223 13.1985 1 0.000977516 0.000977516 0.999999 
-14.1636 13.3025 1 0.000977516 0.000977516 0.999999 
-11.604 13.1202 1 0.000977516 0.000977516 0.999999 
-10.4117 13.0223 1 0.000977516 0.000977516 0.999999 
-5.54036 13.0568 1 0.000977516 0.000977516 0.999999 
-12.6491 13.1198 1 0.000977516 0.000977516 0.999999 
-11.1109 13.2452 1 0.000977516 0.000977516 0.999999 
-9.36504 13.0063 1 0.000977516 0.000977516 0.999999 
-3.11867 13.0288 1 0.000977516 0.000977516 0.999999 
-10.3423 13.1951 1 0.000977516 0.000977516 0.999999 
-6.3881 13.068 1 0.000977516 0.000977516 0.999999 
-7.67136 13.1283 1 0.000977516 0.000977516 0.999999 
-10.556 13.3025 1 0.000977516 0.000977516 0.999999 
-6.7337 13.0651 1 0.000977516 0.000977516 0.999999 
-14.065 13.1739 1 0.000977516 0.000977516 0.999999 
-7.86118 13.0319 1 0.000977516 0.000977516 0.999999 
-4.24613 13.0645 1 0.000977516 0.000977516 0.999999 
-13.6737 13.0262 1 0.000977516 0.000977516 0.999999 
-6.11479 13.0359 1 0.000977516 0.000977516 0.999999 
-6.56923 13.1064 1 0.000977516 0.000977516 0.999999 
-7.3409 13.017 1 0.000977516 0.000977516 0.999999 
-10.8753 13.0192 1 0.000977516 0.000977516 0.999999 
-11.2666 13.2761 1 0.000977516 0.000977516 0.999999 
-5.05567 13.0525 1 0.000977516 0.000977516 0.999999 
-14.017 13.4008 1 0.000977516 0.000977516 0.999999 
-12.2313 13.1163 1 0.000977516 0.000977516 0.999999 
-12.5827 13.3106 1 0.000977516 0.000977516 0.999999 
-12.7928 13.2833 1 0.000977516 0.000977516 0.999999 
-12.0734 13.0548 1 0.000977516 0.000977516 0.999999 
-4.66732 13.0074 1 0.000977516 0.000977516 0.999999 
-14.3258 13.3764 1 0.000977516 0.000977516 0.999999 
-12.9825 13.2242 1 0.000977516 0.000977516 0.999999 
-11.6893 13.2713 1 0.000977516 0.000977516 0.999999 
-14.2656 13.1635 1 0.000977516 0.000977516 0.999999 
-11.4204 13.032 1 0.000977516 0.000977516 0.999999 
-3.59642 13.0027 1 0.000977516 0.000977516 0.999999 
-2.01773 13.0106 1 0.000977516 0.000977516 0.999999 
-1.19551 13.0042 1 0.000977516 0.000977516 0.999999 
-9.8157 13.0825 1 0.000977516 0.000977516 0.999999 
6.51793 12.5652 1 0.000977516 0.000977516 0.999999 
1.40241 12.8813 1 0.000977516 0.000977516 0.999999 
9.55113 12.5475 1 0.000977516 0.000977516 0.999999 
0.767713 12.5652 1 0.000977516 0.000977516 0.999999 
8.19464 12.5554 1 0.000977516 0.000977516 0.999999 
4.75115 12.6064 1 0.000977516 0.000977516 0.999999 
3.8899 12.5497 1 0.000977516 0.000977516 0.999999 
0.50945 12.8316 1 0.000977516 0.000977516 0.999999 
0.32713 12.8892 1 0.000977516 0.000977516 0.999999 
4.5263 12.5915 1 0.000977516 0.000977516 0.999999 
1.46267 12.6343 1 0.000977516 0.000977516 0.999999 
5.55318 12.526 1 0.000977516 0.000977516 0.999999 
5.16055 12.5528 1 0.000977516 0.000977516 0.999999 
7.51827 12.6352 1 0.000977516 0.000977516 0.999999 
8.3634 12.5365 1 0.000977516 0.000977516 0.999999 
8.56526 12.62 1 0.000977516 0.000977516 0.999999 
6.32175 12.5709 1 0.000977516 0.000977516 0.999999 
6.12817 12.6469 1 0.000977516 0.000977516 0.999999 
3.61066 12.5558 1 0.000977516 0.000977516 0.999999 
3.01807 12.6594 1 0.000977516 0.000977516 0.999999 
5.23879 12.7076 1 0.000977516 0.000977516 0.999999 
2.79603 12.7037 1 0.000977516 0.000977516 0.999999 
0.755269 12.8962 1 0.000977516 0.000977516 0.999999 
9.75294 12.5216 1 0.000977516 0.000977516 0.999999 
0.130269 12.7518 1 0.000977516 0.000977516 0.999999 
1.87302 12.7094 1 0.000977516 0.000977516 0.999999 
0.419526 12.5066 1 0.000977516 0.000977516 0.999999 
3.27875 12.5028 1 0.000977516 0.000977516 0.999999 
1.08027 12.8985 1 0.000977516 0.000977516 0.999999 
1.97405 12.5955 1 0.000977516 0.000977516 0.999999 
7.75211 12.5217 1 0.000977516 0.000977516 0.999999 
0.303962 12.7364 1 0.000977516 0.000977516 0.999999 
2.18161 12.7799 1 0.000977516 0.000977516 0.999999 
1.73377 12.5995 1 0.000977516 0.000977516 0.999999 
5.9359 12.6289 1 0.000977516 0.000977516 0.999999 
6.68357 12.6592 1 0.000977516 0.000977516 0.999999 
4.28668 12.6067 1 0.000977516 0.000977516 0.999999 
9.9039 12.5583 1 0.000977516 0.000977516 0.999999 
9.26429 12.5151 1 0.000977516 0.000977516 0.999999 
11.0721 12.5823 1 0.000977516 0.000977516 0.999999 
1.18012 12.561 1 0.000977516 0.000977516 0.999999 
10.668 12.5594 1 0.000977516 0.000977516 0.999999 
4.00104 12.7969 1 0.000977516 0.000977516 0.999999 
5.70928 12.5691 1 0.000977516 0.000977516 0.999999 
6.98462 12.7059 1 0.000977516 0.000977516 0.999999 
4.43031 12.7096 1 0.000977516 0.000977516 0.999999 
2.60549 12.7931 1 0.000977516 0.000977516 0.999999 
3.21431 12.7123 1 0.000977516 0.000977516 0.999999 
11.5213 12.5023 1 0.000977516 0.000977516 0.999999 
8.8054 12.5847 1 0.000977516 0.000977516 0.999999 
11.9603 12.5209 1 0.000977516 0.000977516 0.999999 
2.56295 12.6078 1 0.000977516 0.000977516 0.999999 
0.242248 12.5521 1 0.000977516 0.000977516 0.999999 
2.23025 12.5149 1 0.000977516 0.000977516 0.999999 
4.58873 12.73 1 0.000977516 0.000977516 0.999999 
2.43788 12.5014 1 0.000977516 0.000977516 0.999999 
10.3316 12.5791 1 0.000977516 0.000977516 0.999999 
5.35527 12.5787 1 0.000977516 0.000977516 0.999999 
1.75127 12.8708 1 0.000977516 0.000977516 0.999999 
4.11718 12.6411 1 0.000977516 0.000977516 0.999999 
5.06433 12.6865 1 0.000977516 0.000977516 0.999999 
2.34659 12.7518 1 0.000977516 0.000977516 0.999999 
4.1717 12.8314 1 0.000977516 0.000977516 0.999999 
7.17157 12.5608 1 0.000977516 0.000977516 0.999999 
3.78615 12.6921 1 0.000977516 0.000977516 0.999999 
8.01332 12.5827 1 0.000977516 0.000977516 0.999999 
6.76859 12.5173 1 0.000977516 0.000977516 0.999999 
1.99802 12.8331 1 0.000977516 0.000977516 0.999999 
6.83428 12.6731 1 0.000977516 0.000977516 0.999999 
3.56071 12.7237 1 0.000977516 0.000977516 0.999999 
0.613389 12.582 1 0.000977516 0.000977516 0.999999 
0.683746 12.7163 1 0.000977516 0.000977516 0.999999 
0.939247 12.5708 1 0.000977516 0.000977516 0.999999 
11.2619 12.5385 1 0.000977516 0.000977516 0.999999 
1.27803 12.75 1 0.000977516 0.000977516 0.999999 
11.7014 12.5284 1 0.000977516 0.000977516 0.999999 
0.0159506 12.5601 1 0.000977516 0.000977516 0.999999 
7.35883 12.5179 1 0.000977516 0.000977516 0.999999 
1.60304 12.7454 1 0.000977516 0.000977516 0.999999 
1.60104 12.5125 1 0.000977516 0.000977516 0.999999 
3.3753 12.6547 1 0.000977516 0.000977516 0.999999 
12.682 12.5047 1 0.000977516 0.000977516 0.999999 
13.7669 12.5048 1 0.000977516 0.000977516 0.999999 
13.4172 12.5007 1 0.000977516 0.000977516 0.999999 
3.46456 12.5091 1 0.000977516 0.000977516 0.999999 
12.4869 12.5151 1 0.000977516 0.000977516 0.999999 
3.42718 12.8395 1 0.000977516 0.000977516 0.999999 
2.93858 12.5206 1 0.000977516 0.000977516 0.999999 
0.980687 12.7292 1 0.000977516 0.000977516 0.999999 
0.474829 12.6728 1 0.000977516 0.000977516 0.999999 
4.95494 12.5172 1 0.000977516 0.000977516 0.999999 
6.93052 12.5468 1 0.000977516 0.000977516 0.999999 
2.72758 12.5446 1 0.000977516 0.000977516 0.999999 
5.51988 12.686 1 0.000977516 0.000977516 0.999999 
0.0497722 12.8883 1 0.000977516 0.000977516 0.999999 
4.89039 12.6987 1 0.000977516 0.000977516 0.999999 
9.03188 12.5172 1 0.000977516 0.000977516 0.999999 
10.8442 12.5029 1 0.000977516 0.000977516 0.999999 
10.1254 12.5221 1 0.000977516 0.000977516 0.999999 
-1.93656 12.8416 1 0.000977516 0.000977516 0.999999 
-8.32233 12.8689 1 0.000977516 0.000977516 0.999999 
-0.189088 12.75 1 0.000977516 0.000977516 0.999999 
-11.0108 12.9366 1 0.000977516 0.000977516 0.999999 
-0.275085 12.8853 1 0.000977516 0.000977516 0.999999 
-3.68975 12.766 1 0.000977516 0.000977516 0.999999 
-4.08796 12.8889 1 0.000977516 0.000977516 0.999999 
-6.71122 12.7827 1 0.000977516 0.000977516 0.999999 
-3.1932 12.7476 1 0.000977516 0.000977516 0.999999 
-2.73113 12.7007 1 0.000977516 0.000977516 0.999999 
-10.562 12.8996 1 0.000977516 0.000977516 0.999999 
-9.85668 12.8382 1 0.000977516 0.000977516 0.999999 
-1.75769 12.8668 1 0.000977516 0.000977516 0.999999 
-8.94443 12.9185 1 0.000977516 0.000977516 0.999999 
-2.25104 12.6552 1 0.000977516 0.000977516 0.999999 
-3.33315 12.8127 1 0.000977516 0.000977516 0.999999 
-0.841801 12.8496 1 0.000977516 0.000977516 0.999999 
-2.91142 12.6093 1 0.000977516 0.000977516 0.999999 
-1.72315 12.6387 1 0.000977516 0.000977516 0.999999 
-7.12167 12.7687 1 0.000977516 0.000977516 0.999999 
-3.85193 12.7864 1 0.000977516 0.000977516 0.999999 
-7.52416 12.7931 1 0.000977516 0.000977516 0.999999 
-4.3904 12.8653 1 0.000977516 0.000977516 0.999999 
-9.48915 12.8581 1 0.000977516 0.000977516 0.999999 
-5.47173 12.7182 1 0.000977516 0.000977516 0.999999 
-10.2125 12.9292 1 0.000977516 0.000977516 0.999999 
-0.514923 12.5396 1 0.000977516 0.000977516 0.999999 
-6.29886 12.749 1 0.000977516 0.000977516 0.999999 
-0.678643 12.5962 1 0.000977516 0.000977516 0.999999 
-2.56923 12.927 1 0.000977516 0.000977516 0.999999 
-1.55572 12.8508 1 0.000977516 0.000977516 0.999999 
-7.00086 12.8659 1 0.000977516 0.000977516 0.999999 
-7.6623 12.9091 1 0.000977516 0.000977516 0.999999 
-1.21299 12.5838 1 0.000977516 0.000977516 0.999999 
-5.74918 12.721 1 0.000977516 0.000977516 0.999999 
-5.32445 12.7906 1 0.000977516 0.000977516 0.999999 
-2.41218 12.9061 1 0.000977516 0.000977516 0.999999 
-0.331849 12.6681 1 0.000977516 0.000977516 0.999999 
-4.83049 12.8268 1 0.000977516 0.000977516 0.999999 
-2.17268 12.9129 1 0.000977516 0.000977516 0.999999 
-5.97118 12.8919 1 0.000977516 0.000977516 0.999999 
-8.12856 12.8471 1 0.000977516 0.000977516 0.999999 
-1.05502 12.9176 1 0.000977516 0.000977516 0.999999 
-1.54741 12.5679 1 0.000977516 0.000977516 0.999999 
-12.9517 12.948 1 0.000977516 0.000977516 0.999999 
-8.53624 12.7909 1 0.000977516 0.000977516 0.999999 
-1.01709 12.6805 1 0.000977516 0.000977516 0.999999 
-4.98004 12.6821 1 0.000977516 0.000977516 0.999999 
-4.18193 12.6805 1 0.000977516 0.000977516 0.999999 
-0.575554 12.7219 1 0.000977516 0.000977516 0.999999 
-5.56328 12.8829 1 0.000977516 0.000977516 0.999999 
-10.0182 12.8715 1 0.000977516 0.000977516 0.999999 
-2.95067 12.855 1 0.000977516 0.000977516 0.999999 
-1.34049 12.7599 1 0.000977516 0.000977516 0.999999 
-4.70988 12.694 1 0.000977516 0.000977516 0.999999 
-4.63387 12.8293 1 0.000977516 0.000977516 0.999999 
-0.566304 12.9109 1 0.000977516 0.000977516 0.999999 
-6.49686 12.8055 1 0.000977516 0.000977516 0.999999 
-2.52656 12.704 1 0.000977516 0.000977516 0.999999 
-6.01723 12.7252 1 0.000977516 0.000977516 0.999999 
-4.48632 12.6562 1 0.000977516 0.000977516 0.999999 
-9.2207 12.9186 1 0.000977516 0.000977516 0.999999 
-8.77307 12.8769 1 0.000977516 0.000977516 0.999999 
-1.97565 12.6735 1 0.000977516 0.000977516 0.999999 
-5.17799 12.8462 1 0.000977516 0.000977516 0.999999 
-3.37744 12.6193 1 0.000977516 0.000977516 0.999999 
-3.53479 12.6746 1 0.000977516 0.000977516 0.999999 
-12.1946 12.9235 1 0.000977516 0.000977516 0.999999 
-0.867444 12.583 1 0.000977516 0.000977516 0.999999 
-7.88448 12.8236 1 0.000977516 0.000977516 0.999999 
-3.92473 12.6392 1 0.000977516 0.000977516 0.999999 
-11.7406 12.9431 1 0.000977516 0.000977516 0.999999 
-0.441807 12.8261 1 0.000977516 0.000977516 0.999999 
-2.40753 12.6097 1 0.000977516 0.000977516 0.999999 
-12.7254 12.9273 1 0.000977516 0.000977516 0.999999 
-11.2773 12.8955 1 0.000977516 0.000977516 0.999999 
-9.72997 12.9438 1 0.000977516 0.000977516 0.999999 
-7.32971 12.7498 1 0.000977516 0.000977516 0.999999 
-5.15054 12.6786 1 0.000977516 0.000977516 0.999999 
-7.14942 12.9209 1 0.000977516 0.000977516 0.999999 
-1.4417 12.9534 1 0.000977516 0.000977516 0.999999 
-11.5767 12.9159 1 0.000977516 0.000977516 0.999999 
-1.86927 12.9804 1 0.000977516 0.000977516 0.999999 
-13.4444 12.967 1 0.000977516 0.000977516 0.999999 
-0.720133 12.9591 1 0.000977516 0.000977516 0.999999 
-3.48233 12.886 1 0.000977516 0.000977516 0.999999 
-3.20054 12.9016 1 0.000977516 0.000977516 0.999999 
-6.14039 12.8618 1 0.000977516 0.000977516 0.999999 
-3.7457 12.6254 1 0.000977516 0.000977516 0.999999 
-3.10357 12.608 1 0.000977516 0.000977516 0.999999 
-0.185992 12.5544 1 0.000977516 0.000977516 0.999999 
-11.9 12.9062 1 0.000977516 0.000977516 0.999999 
-1.38028 12.5968 1 0.000977516 0.000977516 0.999999 
-9.41568 12.5351 1 0.000977516 0.000977516 0.999999 
-12.5332 12.5752 1 0.000977516 0.000977516 0.999999 
-1.81425 12.5005 1 0.000977516 0.000977516 0.999999 
-9.1918 12.5995 1 0.000977516 0.000977516 0.999999 
-11.7014 12.5694 1 0.000977516 0.000977516 0.999999 
-14.7596 12.527 1 0.000977516 0.000977516 0.999999 
-14.0773 12.5093 1 0.000977516 0.000977516 0.999999 
-10.6067 12.7012 1 0.000977516 0.000977516 0.999999 
-13.286 12.6355 1 0.000977516 0.000977516 0.999999 
-4.39196 12.5174 1 0.000977516 0.000977516 0.999999 
-14.8909 12.8238 1 0.000977516 0.000977516 0.999999 
-5.45578 12.5602 1 0.000977516 0.000977516 0.999999 
-8.04377 12.5047 1 0.000977516 0.000977516 0.999999 
-10.3751 12.6684 1 0.000977516 0.000977516 0.999999 
-14.3279 12.6128 1 0.000977516 0.000977516 0.999999 
-14.5902 12.679 1 0.000977516 0.000977516 0.999999 
-11.8635 12.7138 1 0.000977516 0.000977516 0.999999 
-14.4766 12.5762 1 0.000977516 0.000977516 0.999999 
-13.1502 12.9093 1 0.000977516 0.000977516 0.999999 
-12.9211 12.7151 1 0.000977516 0.000977516 0.999999 
-10.9531 12.6044 1 0.000977516 0.000977516 0.999999 
-13.6902 12.7631 1 0.000977516 0.000977516 0.999999 
-13.4336 12.5782 1 0.000977516 0.000977516 0.999999 
-14.4989 12.9103 1 0.000977516 0.000977516 0.999999 
-7.35172 12.5713 1 0.000977516 0.000977516 0.999999 
-7.51168 12.5358 1 0.000977516 0.000977516 0.999999 
-13.8191 12.5045 1 0.000977516 0.000977516 0.999999 
-6.28426 12.5247 1 0.000977516 0.000977516 0.999999 
-10.767 12.5407 1 0.000977516 0.000977516 0.999999 
-9.37046 12.7123 1 0.000977516 0.000977516 0.999999 
-11.9178 12.5588 1 0.000977516 0.000977516 0.999999 
-11.2478 12.6328 1 0.000977516 0.000977516 0.999999 
-8.24176 12.6704 1 0.000977516 0.000977516 0.999999 
-9.0273 12.5579 1 0.000977516 0.000977516 0.999999 
-5.79047 12.5077 1 0.000977516 0.000977516 0.999999 
-4.84899 12.5044 1 0.000977516 0.000977516 0.999999 
-7.64545 12.6909 1 0.000977516 0.000977516 0.999999 
-11.5421 12.6574 1 0.000977516 0.000977516 0.999999 
-6.65056 12.5925 1 0.000977516 0.000977516 0.999999 
-5.64472 12.5841 1 0.000977516 0.000977516 0.999999 
-8.57924 12.6205 1 0.000977516 0.000977516 0.999999 
-9.0406 12.7541 1 0.000977516 0.000977516 0.999999 
-2.07751 12.5251 1 0.000977516 0.000977516 0.999999 
-12.3671 12.6437 1 0.000977516 0.000977516 0.999999 
-13.1055 12.668 1 0.000977516 0.000977516 0.999999 
-10.045 12.7012 1 0.000977516 0.000977516 0.999999 
-8.39537 12.6293 1 0.000977516 0.000977516 0.999999 
-10.5025 12.5371 1 0.000977516 0.000977516 0.999999 
-5.99639 12.5434 1 0.000977516 0.000977516 0.999999 
-12.8106 12.5269 1 0.000977516 0.000977516 0.999999 
-14.9538 12.5198 1 0.000977516 0.000977516 0.999999 
-14.0597 12.7533 1 0.000977516 0.000977516 0.999999 
-10.8016 12.8305 1 0.000977516 0.000977516 0.999999 
-6.90842 12.7102 1 0.000977516 0.000977516 0.999999 
-12.2193 12.7063 1 0.000977516 0.000977516 0.999999 
-9.70346 12.5777 1 0.000977516 0.000977516 0.999999 
-6.43026 12.5828 1 0.000977516 0.000977516 0.999999 
-11.414 12.5235 1 0.000977516 0.000977516 0.999999 
-6.9218 12.5516 1 0.000977516 0.000977516 0.999999 
-3.27446 12.5066 1 0.000977516 0.000977516 0.999999 
-14.2867 12.8621 1 0.000977516 0.000977516 0.999999 
-12.176 12.559 1 0.000977516 0.000977516 0.999999 
-2.58302 12.5008 1 0.000977516 0.000977516 0.999999 
-13.1782 12.5306 1 0.000977516 0.000977516 0.999999 
-9.65231 12.7341 1 0.000977516 0.000977516 0.999999 
-11.1067 12.7747 1 0.000977516 0.000977516 0.999999 
-13.5348 12.756 1 0.000977516 0.000977516 0.999999 
-8.77337 12.7237 1 0.000977516 0.000977516 0.999999 
-14.7592 12.7172 1 0.000977516 0.000977516 0.999999 
-12.7034 12.7045 1 0.000977516 0.000977516 0.999999 
-13.863 12.8685 1 0.000977516 0.000977516 0.999999 
-13.6048 12.5503 1 0.000977516 0.000977516 0.999999 
-11.4679 12.7891 1 0.000977516 0.000977516 0.999999 
-10.2103 12.5965 1 0.000977516 0.000977516 0.999999 
-4.58828 12.5272 1 0.000977516 0.000977516 0.999999 
-7.83722 12.5325 1 0.000977516 0.000977516 0.999999 
-14.8514 12.9717 1 0.000977516 0.000977516 0.999999 
-4.23262 12.5197 1 0.000977516 0.000977516 0.999999 
-10.2169 12.7646 1 0.000977516 0.000977516 0.999999 
-8.83006 12.5166 1 0.000977516 0.000977516 0.999999 
-12.0571 12.7957 1 0.000977516 0.000977516 0.999999 
-7.08574 12.5265 1 0.000977516 0.000977516 0.999999 
-9.91757 12.5661 1 0.000977516 0.000977516 0.999999 
-12.5016 12.838 1 0.000977516 0.000977516 0.999999 
-5.28062 12.5152 1 0.000977516 0.000977516 0.999999 
-14.9623 12.6884 1 0.000977516 0.000977516 0.999999 
-7.67399 12.5057 1 0.000977516 0.000977516 0.999999 
-7.96881 12.696 1 0.000977516 0.000977516 0.999999 
-11.1269 12.5287 1 0.000977516 0.000977516 0.999999 
-6.17197 12.6266 1 0.000977516 0.000977516 0.999999 
-12.3446 12.8208 1 0.000977516 0.000977516 0.999999 
-11.6797 12.7903 1 0.000977516 0.000977516 0.999999 
-13.8209 12.6575 1 0.000977516 0.000977516 0.999999 
-4.01161 12.5024 1 0.000977516 0.000977516 0.999999 
-13.3405 12.8248 1 0.000977516 0.000977516 0.999999 
-5.00925 12.5129 1 0.000977516 0.000977516 0.999999 
-14.6529 12.8719 1 0.000977516 0.000977516 0.999999 
-13.0179 12.5171 1 0.000977516 0.000977516 0.999999 
-10.4286 12.8188 1 0.000977516 0.000977516 0.999999 
15 13.3833 0.236002 0.999999 0.000977516 0.000977516 
15 13.4702 0.0512656 0.999999 0.000977516 0.000977516 
15 13.4751 0.377294 0.999999 0.000977516 0.000977516 
15 13.2452 0.00526085 0.999999 0.000977516 0.000977516 
15 13.1921 0.180288 0.999999 0.000977516 0.000977516 
15 13.2985 0.365933 0.999999 0.000977516 0.000977516 
15 13.0705 0.349111 0.999999 0.000977516 0.000977516 
15 13.1806 0.47201 0.999999 0.000977516 0.000977516 
15 13.0104 0.171736 0.999999 0.000977516 0.000977516 
15 13.3134 0.813023 0.999999 0.000977516 0.000977516 
15 13.3225 0.596909 0.999999 0.000977516 0.000977516 
15 13.1771 0.676113 0.999999 0.000977516 0.000977516 
15 13.4265 0.712627 0.999999 0.000977516 0.000977516 
15 12.8148 0.184808 0.999999 0.000977516 0.000977516 
15 12.7148 0.0568607 0.999999 0.000977516 0.000977516 
15 12.8538 0.353743 0.999999 0.000977516 0.000977516 
15 13.0608 0.84256 0.999999 0.000977516 0.000977516 
15 13.0213 0.554643 0.999999 0.000977516 0.000977516 
15 12.554 0.416204 0.999999 0.000977516 0.000977516 
15 12.6231 0.232829 0.999999 0.000977516 0.000977516 
15 12.7314 0.483145 0.999999 0.000977516 0.000977516 
15 12.8073 0.635747 0.999999 0.000977516 0.000977516 
15 12.8527 0.823925 0.999999 0.000977516 0.000977516 
15 12.5375 0.794455 0.999999 0.000977516 0.000977516 
15 12.5084 0.584093 0.999999 0.000977516 0.000977516 
15 12.6778 0.854614 0.999999 0.000977516 0.000977516 
8.27098 13.4105 0 0.000977516 0.000977516 -0.999999 
14.2769 13.1826 0 0.000977516 0.000977516 -0.999999 
6.59221 13.4168 0 0.000977516 0.000977516 -0.999999 
8.9713 13.4815 0 0.000977516 0.000977516 -0.999999 
13.5942 13.3386 0 0.000977516 0.000977516 -0.999999 
12.7209 13.4836 0 0.000977516 0.000977516 -0.999999 
12.0352 13.1948 0 0.000977516 0.000977516 -0.999999 
6.2694 13.4313 0 0.000977516 0.000977516 -0.999999 
4.73125 13.4387 0 0.000977516 0.000977516 -0.999999 
11.8961 13.3952 0 0.000977516 0.000977516 -0.999999 
6.96284 13.4319 0 0.000977516 0.000977516 -0.999999 
8.50351 13.483 0 0.000977516 0.000977516 -0.999999 
12.3742 13.2274 0 0.000977516 0.000977516 -0.999999 
10.0084 13.4564 0 0.000977516 0.000977516 -0.999999 
13.1904 13.2108 0 0.000977516 0.000977516 -0.999999 
5.46154 13.4524 0 0.000977516 0.000977516 -0.999999 
6.75866 13.463 0 0.000977516 0.000977516 -0.999999 
13.712 13.1957 0 0.000977516 0.000977516 -0.999999 
3.21494 13.4811 0 0.000977516 0.000977516 -0.999999 
14.8294 13.2749 0 0.000977516 0.000977516 -0.999999 
13.4764 13.2216 0 0.000977516 0.000977516 -0.999999 
11.2698 13.3001 0 0.000977516 0.000977516 -0.999999 
12.1257 13.3357 0 0.000977516 0.000977516 -0.999999 
9.15358 13.4564 0 0.000977516 0.000977516 -0.999999 
11.5889 13.2323 0 0.000977516 0.000977516 -0.999999 
9.3258 13.3277 0 0.000977516 0.000977516 -0.999999 
14.1149 13.4264 0 0.000977516 0.000977516 -0.999999 
9.49269 13.2586 0 0.000977516 0.000977516 -0.999999 
7.6306 13.4922 0 0.000977516 0.000977516 -0.999999 
3.83982 13.474 0 0.000977516 0.000977516 -0.999999 
9.79884 13.4343 0 0.000977516 0.000977516 -0.999999 
8.41682 13.2715 0 0.000977516 0.000977516 -0.999999 
9.84246 13.2603 0 0.000977516 0.000977516 -0.999999 
7.35373 13.4585 0 0.000977516 0.000977516 -0.999999 
14.4275 13.2555 0 0.000977516 0.000977516 -0.999999 
11.6247 13.4426 0 0.000977516 0.000977516 -0.999999 
8.60615 13.3715 0 0.000977516 0.000977516 -0.999999 
10.2665 13.31 0 0.000977516 0.000977516 -0.999999 
11.0067 13.459 0 0.000977516 0.000977516 -0.999999 
7.41927 13.256 0 0.000977516 0.000977516 -0.999999 
13.1379 13.387 0 0.000977516 0.000977516 -0.999999 
12.495 13.4001 0 0.000977516 0.000977516 -0.999999 
14.5735 13.3588 0 0.000977516 0.000977516 -0.999999 
7.12615 13.4585 0 0.000977516 0.000977516 -0.999999 
14.611 13.2075 0 0.000977516 0.000977516 -0.999999 
9.58964 13.3831 0 0.000977516 0.000977516 -0.999999 
10.5681 13.3676 0 0.000977516 0.000977516 -0.999999 
7.8371 13.4729 0 0.000977516 0.000977516 -0.999999 
13.0105 13.3052 0 0.000977516 0.000977516 -0.999999 
14.0247 13.2058 0 0.000977516 0.000977516 -0.999999 
13.7607 13.4292 0 0.000977516 0.000977516 -0.999999 
4.10302 13.4537 0 0.000977516 0.000977516 -0.999999 
12.5052 13.1527 0 0.000977516 0.000977516 -0.999999 
10.8622 13.3404 0 0.000977516 0.000977516 -0.999999 
2.03122 13.4692 0 0.000977516 0.000977516 -0.999999 
11.3407 13.4923 0 0.000977516 0.000977516 -0.999999 
6.06512 13.4738 0 0.000977516 0.000977516 -0.999999 
14.7529 13.4276 0 0.000977516 0.000977516 -0.999999 
5.61685 13.4537 0 0.000977516 0.000977516 -0.999999 
13.3311 13.3011 0 0.000977516 0.000977516 -0.999999 
12.8454 13.2727 0 0.000977516 0.000977516 -0.999999 
3.6291 13.4216 0 0.000977516 0.000977516 -0.999999 
13.9188 13.4516 0 0.000977516 0.000977516 -0.999999 
11.0908 13.266 0 0.000977516 0.000977516 -0.999999 
7.98633 13.4543 0 0.000977516 0.000977516 -0.999999 
12.6228 13.2803 0 0.000977516 0.000977516 -0.999999 
10.4285 13.481 0 0.000977516 0.000977516 -0.999999 
13.8564 13.2927 0 0.000977516 0.000977516 -0.999999 
5.1605 13.4637 0 0.000977516 0.000977516 -0.999999 
10.2007 13.4947 0 0.000977516 0.000977516 -0.999999 
8.85104 13.3465 0 0.000977516 0.000977516 -0.999999 
9.06672 13.239 0 0.000977516 0.000977516 -0.999999 
4.92617 13.4435 0 0.000977516 0.000977516 -0.999999 
10.7113 13.2376 0 0.000977516 0.000977516 -0.999999 
14.3409 13.4156 0 0.000977516 0.000977516 -0.999999 
9.40462 13.4563 0 0.000977516 0.000977516 -0.999999 
13.3138 13.4624 0 0.000977516 0.000977516 -0.999999 
10.437 13.2569 0 0.000977516 0.000977516 -0.999999 
4.39097 13.4568 0 0.000977516 0.000977516 -0.999999 
9.66958 13.2502 0 0.000977516 0.000977516 -0.999999 
7.9273 13.2935 0 0.000977516 0.000977516 -0.999999 
10.0585 13.2776 0 0.000977516 0.000977516 -0.999999 
11.7267 13.3183 0 0.000977516 0.000977516 -0.999999 
12.2156 13.4936 0 0.000977516 0.000977516 -0.999999 
10.7771 13.4941 0 0.000977516 0.000977516 -0.999999 
12.9555 13.4508 0 0.000977516 0.000977516 -0.999999 
11.4489 13.3328 0 0.000977516 0.000977516 -0.999999 
12.2931 13.3619 0 0.000977516 0.000977516 -0.999999 
11.394 13.1892 0 0.000977516 0.000977516 -0.999999 
5.87085 13.4911 0 0.000977516 0.000977516 -0.999999 
11.8517 13.2248 0 0.000977516 0.000977516 -0.999999 
-1.06188 13.5 0.24989 0.000977516 0.999999 0.000977516 
-4.82127 13.5 0.352828 0.000977516 0.999999 0.000977516 
-8.00838 13.5 0.36712 0.000977516 0.999999 0.000977516 
-3.37586 13.5 0.29548 0.000977516 0.999999 0.000977516 
-9.19144 13.5 0.368116 0.000977516 0.999999 0.000977516 
-2.02711 13.5 0.223977 0.000977516 0.999999 0.000977516 
-2.74437 13.5 0.234326 0.000977516 0.999999 0.000977516 
-12.2162 13.5 0.423137 0.000977516 0.999999 0.000977516 
-6.07486 13.5 0.424466 0.000977516 0.999999 0.000977516 
-1.4833 13.5 0.331938 0.000977516 0.999999 0.000977516 
-4.25791 13.5 0.43031 0.000977516 0.999999 0.000977516 
-2.53047 13.5 0.321902 0.000977516 0.999999 0.000977516 
-2.70212 13.5 0.458821 0.000977516 0.999999 0.000977516 
-3.74798 13.5 0.492759 0.000977516 0.999999 0.000977516 
-0.565622 13.5 0.424094 0.000977516 0.999999 0.000977516 
-9.66796 13.5 0.492857 0.000977516 0.999999 0.000977516 
-0.355325 13.5 0.356582 0.000977516 0.999999 0.000977516 
-2.93515 13.5 0.175208 0.000977516 0.999999 0.000977516 
-3.53075 13.5 0.140755 0.000977516 0.999999 0.000977516 
-1.96606 13.5 0.419376 0.000977516 0.999999 0.000977516 
-3.24755 13.5 0.434542 0.000977516 0.999999 0.000977516 
-0.628036 13.5 0.203794 0.000977516 0.999999 0.000977516 
-1.22923 13.5 0.301363 0.000977516 0.999999 0.000977516 
-4.45335 13.5 0.346612 0.000977516 0.999999 0.000977516 
-6.2742 13.5 0.472213 0.000977516 0.999999 0.000977516 
-7.16063 13.5 0.281969 0.000977516 0.999999 0.000977516 
-5.62425 13.5 0.407779 0.000977516 0.999999 0.000977516 
-1.71251 13.5 0.427101 0.000977516 0.999999 0.000977516 
-5.18563 13.5 0.315915 0.000977516 0.999999 0.000977516 
-0.18069 13.5 0.21828 0.000977516 0.999999 0.000977516 
-7.24742 13.5 0.461651 0.000977516 0.999999 0.000977516 
-3.25211 13.5 0.201104 0.000977516 0.999999 0.000977516 
-1.12177 13.5 0.421197 0.000977516 0.999999 0.000977516 
-8.44285 13.5 0.454406 0.000977516 0.999999 0.000977516 
-6.0122 13.5 0.285625 0.000977516 0.999999 0.000977516 
-3.88915 13.5 0.432888 0.000977516 0.999999 0.000977516 
-9.9585 13.5 0.488267 0.000977516 0.999999 0.000977516 
-2.27857 13.5 0.494613 0.000977516 0.999999 0.000977516 
-6.70329 13.5 0.351116 0.000977516 0.999999 0.000977516 
-0.163382 13.5 0.482225 0.000977516 0.999999 0.000977516 
-0.744285 13.5 0.471571 0.000977516 0.999999 0.000977516 
-2.32061 13.5 0.251175 0.000977516 0.999999 0.000977516 
-7.02365 13.5 0.437281 0.000977516 0.999999 0.000977516 
-4.6346 13.5 0.307231 0.000977516 0.999999 0.000977516 
-0.813535 13.5 0.194203 0.000977516 0.999999 0.000977516 
-10.1436 13.5 0.484536 0.000977516 0.999999 0.000977516 
-12.7215 13.5 0.46545 0.000977516 0.999999 0.000977516 
-7.56008 13.5 0.401011 0.000977516 0.999999 0.000977516 
-8.60269 13.5 0.455213 0.000977516 0.999999 0.000977516 
-2.95993 13.5 0.328524 0.000977516 0.999999 0.000977516 
-0.0394037 13.5 0.341503 0.000977516 0.999999 0.000977516 
-7.84867 13.5 0.495775 0.000977516 0.999999 0.000977516 
-8.78827 13.5 0.418215 0.000977516 0.999999 0.000977516 
-4.11315 13.5 0.315544 0.000977516 0.999999 0.000977516 
-5.3564 13.5 0.343848 0.000977516 0.999999 0.000977516 
-5.00573 13.5 0.438242 0.000977516 0.999999 0.000977516 
-5.61195 13.5 0.237132 0.000977516 0.999999 0.000977516 
-9.38576 13.5 0.435347 0.000977516 0.999999 0.000977516 
-3.49589 13.5 0.495818 0.000977516 0.999999 0.000977516 
-0.355602 13.5 0.11801 0.000977516 0.999999 0.000977516 
-1.63911 13.5 0.178617 0.000977516 0.999999 0.000977516 
-5.23409 13.5 0.492862 0.000977516 0.999999 0.000977516 
-10.6138 13.5 0.497116 0.000977516 0.999999 0.000977516 
-10.7764 13.5 0.472598 0.000977516 0.999999 0.000977516 
-1.27321 13.5 0.498812 0.000977516 0.999999 0.000977516 
-6.44751 13.5 0.325847 0.000977516 0.999999 0.000977516 
-3.01455 13.5 0.490428 0.000977516 0.999999 0.000977516 
-6.24177 13.5 0.322114 0.000977516 0.999999 0.000977516 
-3.11778 13.5 0.300652 0.000977516 0.999999 0.000977516 
-6.47603 13.5 0.477052 0.000977516 0.999999 0.000977516 
-5.77962 13.5 0.363645 0.000977516 0.999999 0.000977516 
-8.47501 13.5 0.29318 0.000977516 0.999999 0.000977516 
-1.81018 13.5 0.198839 0.000977516 0.999999 0.000977516 
-0.864008 13.5 0.367311 0.000977516 0.999999 0.000977516 
-2.17967 13.5 0.197564 0.000977516 0.999999 0.000977516 
-3.81047 13.5 0.227245 0.000977516 0.999999 0.000977516 
-1.16079 13.5 0.125794 0.000977516 0.999999 0.000977516 
-11.1038 13.5 0.454832 0.000977516 0.999999 0.000977516 
-7.41392 13.5 0.470641 0.000977516 0.999999 0.000977516 
-9.04161 13.5 0.377142 0.000977516 0.999999 0.000977516 
-11.3386 13.5 0.498447 0.000977516 0.999999 0.000977516 
-8.24421 13.5 0.443963 0.000977516 0.999999 0.000977516 
-6.86625 13.5 0.433957 0.000977516 0.999999 0.000977516 
-2.1243 13.5 0.345025 0.000977516 0.999999 0.000977516 
-2.51157 13.5 0.474948 0.000977516 0.999999 0.000977516 
-7.69627 13.5 0.492227 0.000977516 0.999999 0.000977516 
-10.4574 13.5 0.474912 0.000977516 0.999999 0.000977516 
-3.63239 13.5 0.295117 0.000977516 0.999999 0.000977516 
-4.66819 13.5 0.484548 0.000977516 0.999999 0.000977516 
-4.97739 13.5 0.258274 0.000977516 0.999999 0.000977516 
-4.31408 13.5 0.216724 0.000977516 0.999999 0.000977516 
-10.3929 13.5 0.614935 0.000977516 0.999999 0.000977516 
-14.2946 13.5 0.671127 0.000977516 0.999999 0.000977516 
-8.88872 13.5 0.645027 0.000977516 0.999999 0.000977516 
-13.6853 13.5 0.776495 0.000977516 0.999999 0.000977516 
-13.4295 13.5 0.647249 0.000977516 0.999999 0.000977516 
-14.0159 13.5 0.757031 0.000977516 0.999999 0.000977516 
-13.8183 13.5 0.688369 0.000977516 0.999999 0.000977516 
-4.40113 13.5 0.635773 0.000977516 0.999999 0.000977516 
-11.7207 13.5 0.81411 0.000977516 0.999999 0.000977516 
-11.8238 13.5 0.570451 0.000977516 0.999999 0.000977516 
-5.92486 13.5 0.538461 0.000977516 0.999999 0.000977516 
-11.6073 13.5 0.634783 0.000977516 0.999999 0.000977516 
-7.92609 13.5 0.62873 0.000977516 0.999999 0.000977516 
-9.19316 13.5 0.645997 0.000977516 0.999999 0.000977516 
-9.43495 13.5 0.74364 0.000977516 0.999999 0.000977516 
-6.49488 13.5 0.679136 0.000977516 0.999999 0.000977516 
-5.75735 13.5 0.561338 0.000977516 0.999999 0.000977516 
-8.41334 13.5 0.779083 0.000977516 0.999999 0.000977516 
-10.2411 13.5 0.782562 0.000977516 0.999999 0.000977516 
-4.03883 13.5 0.585816 0.000977516 0.999999 0.000977516 
-11.0569 13.5 0.734187 0.000977516 0.999999 0.000977516 
-6.85928 13.5 0.718934 0.000977516 0.999999 0.000977516 
-6.70693 13.5 0.71228 0.000977516 0.999999 0.000977516 
-8.23505 13.5 0.646094 0.000977516 0.999999 0.000977516 
-14.5308 13.5 0.753772 0.000977516 0.999999 0.000977516 
-12.3522 13.5 0.530358 0.000977516 0.999999 0.000977516 
-12.9812 13.5 0.651089 0.000977516 0.999999 0.000977516 
-14.9257 13.5 0.859177 0.000977516 0.999999 0.000977516 
-9.76845 13.5 0.605203 0.000977516 0.999999 0.000977516 
-12.6754 13.5 0.873769 0.000977516 0.999999 0.000977516 
-12.5923 13.5 0.553598 0.000977516 0.999999 0.000977516 
-12.0626 13.5 0.697833 0.000977516 0.999999 0.000977516 
-10.8629 13.5 0.702184 0.000977516 0.999999 0.000977516 
-14.7507 13.5 0.659755 0.000977516 0.999999 0.000977516 
-11.2379 13.5 0.609718 0.000977516 0.999999 0.000977516 
-14.5106 13.5 0.597762 0.000977516 0.999999 0.000977516 
-13.2475 13.5 0.638254 0.000977516 0.999999 0.000977516 
-8.61299 13.5 0.750352 0.000977516 0.999999 0.000977516 
-11.8978 13.5 0.828547 0.000977516 0.999999 0.000977516 
-14.9854 13.5 0.605854 0.000977516 0.999999 0.000977516 
-7.05587 13.5 0.658876 0.000977516 0.999999 0.000977516 
-8.08137 13.5 0.708722 0.000977516 0.999999 0.000977516 
-9.8165 13.5 0.772735 0.000977516 0.999999 0.000977516 
-7.49133 13.5 0.663984 0.000977516 0.999999 0.000977516 
-11.2257 13.5 0.810118 0.000977516 0.999999 0.000977516 
-5.49937 13.5 0.626962 0.000977516 0.999999 0.000977516 
-12.1185 13.5 0.840118 0.000977516 0.999999 0.000977516 
-12.4271 13.5 0.750835 0.000977516 0.999999 0.000977516 
-5.32755 13.5 0.627327 0.000977516 0.999999 0.000977516 
-10.7819 13.5 0.838346 0.000977516 0.999999 0.000977516 
-6.20025 13.5 0.68396 0.000977516 0.999999 0.000977516 
-14.0469 13.5 0.552483 0.000977516 0.999999 0.000977516 
-8.49925 13.5 0.623867 0.000977516 0.999999 0.000977516 
-11.4152 13.5 0.869046 0.000977516 0.999999 0.000977516 
-10.0145 13.5 0.634514 0.000977516 0.999999 0.000977516 
-3.59635 13.5 0.607457 0.000977516 0.999999 0.000977516 
-5.02267 13.5 0.637773 0.000977516 0.999999 0.000977516 
-9.5168 13.5 0.577773 0.000977516 0.999999 0.000977516 
-7.65759 13.5 0.705368 0.000977516 0.999999 0.000977516 
-9.00283 13.5 0.786815 0.000977516 0.999999 0.000977516 
-11.4278 13.5 0.69053 0.000977516 0.999999 0.000977516 
-14.381 13.5 0.867345 0.000977516 0.999999 0.000977516 
-4.73299 13.5 0.627696 0.000977516 0.999999 0.000977516 
-14.6808 13.5 0.821509 0.000977516 0.999999 0.000977516 
-9.59317 13.5 0.80239 0.000977516 0.999999 0.000977516 
-10.5734 13.5 0.776254 0.000977516 0.999999 0.000977516 
-13.1148 13.5 0.740615 0.000977516 0.999999 0.000977516 
-13.2832 13.5 0.800828 0.000977516 0.999999 0.000977516 
-5.94617 13.5 0.697298 0.000977516 0.999999 0.000977516 
-12.0536 13.5 0.526366 0.000977516 0.999999 0.000977516 
-7.21625 13.5 0.654088 0.000977516 0.999999 0.000977516 
-12.8471 13.5 0.729375 0.000977516 0.999999 0.000977516 
-2.85534 13.5 0.561463 0.000977516 0.999999 0.000977516 
-9.97379 13.5 0.824896 0.000977516 0.999999 0.000977516 
-10.9826 13.5 0.585548 0.000977516 0.999999 0.000977516 
-1.80984 13.5 0.552867 0.000977516 0.999999 0.000977516 
-13.476 13.5 0.827163 0.000977516 0.999999 0.000977516 
-12.2691 13.5 0.716984 0.000977516 0.999999 0.000977516 
-3.20499 13.5 0.591563 0.000977516 0.999999 0.000977516 
-6.69929 13.5 0.558696 0.000977516 0.999999 0.000977516 
-13.5995 13.5 0.626999 0.000977516 0.999999 0.000977516 
-4.89395 13.5 0.548754 0.000977516 0.999999 0.000977516 
-14.1905 13.5 0.811341 0.000977516 0.999999 0.000977516 
-8.74338 13.5 0.592632 0.000977516 0.999999 0.000977516 
-4.2442 13.5 0.604044 0.000977516 0.999999 0.000977516 
-12.3485 13.5 0.90005 0.000977516 0.999999 0.000977516 
-12.8894 13.5 0.907391 0.000977516 0.999999 0.000977516 
-1.44361 13.5 0.523952 0.000977516 0.999999 0.000977516 
-8.78346 13.5 0.768148 0.000977516 0.999999 0.000977516 
-10.3828 13.5 0.844955 0.000977516 0.999999 0.000977516 
10.56 13.5 0.136616 0.000977516 0.999999 0.000977516 
2.89503 13.5 0.119847 0.000977516 0.999999 0.000977516 
5.34452 13.5 0.139098 0.000977516 0.999999 0.000977516 
4.89315 13.5 0.31058 0.000977516 0.999999 0.000977516 
3.62245 13.5 0.15256 0.000977516 0.999999 0.000977516 
0.142545 13.5 0.269212 0.000977516 0.999999 0.000977516 
1.05582 13.5 0.387458 0.000977516 0.999999 0.000977516 
1.25618 13.5 0.425871 0.000977516 0.999999 0.000977516 
3.47017 13.5 0.327767 0.000977516 0.999999 0.000977516 
2.16377 13.5 0.380421 0.000977516 0.999999 0.000977516 
0.589583 13.5 0.312429 0.000977516 0.999999 0.000977516 
1.47187 13.5 0.385066 0.000977516 0.999999 0.000977516 
1.85276 13.5 0.426817 0.000977516 0.999999 0.000977516 
6.74525 13.5 0.227219 0.000977516 0.999999 0.000977516 
0.461177 13.5 0.183847 0.000977516 0.999999 0.000977516 
8.63759 13.5 0.0846199 0.000977516 0.999999 0.000977516 
1.71592 13.5 0.140502 0.000977516 0.999999 0.000977516 
1.94237 13.5 0.129494 0.000977516 0.999999 0.000977516 
1.82455 13.5 0.266817 0.000977516 0.999999 0.000977516 
4.38611 13.5 0.200246 0.000977516 0.999999 0.000977516 
11.9909 13.5 0.0769902 0.000977516 0.999999 0.000977516 
5.59677 13.5 0.16923 0.000977516 0.999999 0.000977516 
8.08212 13.5 0.108863 0.000977516 0.999999 0.000977516 
1.31053 13.5 0.156261 0.000977516 0.999999 0.000977516 
7.9211 13.5 0.20857 0.000977516 0.999999 0.000977516 
2.45048 13.5 0.132988 0.000977516 0.999999 0.000977516 
7.54189 13.5 0.214473 0.000977516 0.999999 0.000977516 
0.558899 13.5 0.46198 0.000977516 0.999999 0.000977516 
8.82485 13.5 0.140199 0.000977516 0.999999 0.000977516 
6.16782 13.5 0.146948 0.000977516 0.999999 0.000977516 
5.84741 13.5 0.285742 0.000977516 0.999999 0.000977516 
3.94028 13.5 0.166284 0.000977516 0.999999 0.000977516 
4.70097 13.5 0.185936 0.000977516 0.999999 0.000977516 
3.05242 13.5 0.0376878 0.000977516 0.999999 0.000977516 
1.14154 13.5 0.160489 0.000977516 0.999999 0.000977516 
3.77124 13.5 0.224392 0.000977516 0.999999 0.000977516 
3.03099 13.5 0.218163 0.000977516 0.999999 0.000977516 
3.1175 13.5 0.376806 0.000977516 0.999999 0.000977516 
5.05069 13.5 0.159725 0.000977516 0.999999 0.000977516 
7.35661 13.5 0.213221 0.000977516 0.999999 0.000977516 
1.64789 13.5 0.40368 0.000977516 0.999999 0.000977516 
6.38345 13.5 0.266417 0.000977516 0.999999 0.000977516 
0.835564 13.5 0.396392 0.000977516 0.999999 0.000977516 
2.48096 13.5 0.394206 0.000977516 0.999999 0.000977516 
10.2643 13.5 0.153209 0.000977516 0.999999 0.000977516 
5.97484 13.5 0.154881 0.000977516 0.999999 0.000977516 
10.0783 13.5 0.14307 0.000977516 0.999999 0.000977516 
0.859685 13.5 0.145926 0.000977516 0.999999 0.000977516 
6.92763 13.5 0.14857 0.000977516 0.999999 0.000977516 
2.77242 13.5 0.250717 0.000977516 0.999999 0.000977516 
0.263278 13.5 0.424539 0.000977516 0.999999 0.000977516 
5.51658 13.5 0.306604 0.000977516 0.999999 0.000977516 
9.04457 13.5 0.164847 0.000977516 0.999999 0.000977516 
13.4821 13.5 0.0413681 0.000977516 0.999999 0.000977516 
2.32974 13.5 0.410124 0.000977516 0.999999 0.000977516 
9.54603 13.5 0.157768 0.000977516 0.999999 0.000977516 
2.62753 13.5 0.185222 0.000977516 0.999999 0.000977516 
11.4489 13.5 0.113996 0.000977516 0.999999 0.000977516 
2.18189 13.5 0.154721 0.000977516 0.999999 0.000977516 
4.11065 13.5 0.161015 0.000977516 0.999999 0.000977516 
3.29113 13.5 0.359691 0.000977516 0.999999 0.000977516 
6.58589 13.5 0.172865 0.000977516 0.999999 0.000977516 
9.89794 13.5 0.119041 0.000977516 0.999999 0.000977516 
11.7391 13.5 0.094063 0.000977516 0.999999 0.000977516 
14.4799 13.5 0.0167429 0.000977516 0.999999 0.000977516 
2.79398 13.5 0.405288 0.000977516 0.999999 0.000977516 
1.53387 13.5 0.169613 0.000977516 0.999999 0.000977516 
10.9398 13.5 0.132615 0.000977516 0.999999 0.000977516 
4.585 13.5 0.0101169 0.000977516 0.999999 0.000977516 
9.26139 13.5 0.160405 0.000977516 0.999999 0.000977516 
3.37898 13.5 0.18882 0.000977516 0.999999 0.000977516 
0.561715 13.5 0.0538447 0.000977516 0.999999 0.000977516 
8.32606 13.5 0.165011 0.000977516 0.999999 0.000977516 
3.65606 13.5 0.334924 0.000977516 0.999999 0.000977516 
6.42985 13.5 0.0288819 0.000977516 0.999999 0.000977516 
4.24513 13.5 0.0710666 0.000977516 0.999999 0.000977516 
4.06823 13.5 0.332012 0.000977516 0.999999 0.000977516 
7.20609 13.5 0.249103 0.000977516 0.999999 0.000977516 
0.306515 13.5 0.210137 0.000977516 0.999999 0.000977516 
11.1188 13.5 0.0961726 0.000977516 0.999999 0.000977516 
7.76424 13.5 0.169938 0.000977516 0.999999 0.000977516 
0.701295 13.5 0.198232 0.000977516 0.999999 0.000977516 
6.10716 13.5 0.287479 0.000977516 0.999999 0.000977516 
4.52087 13.5 0.342704 0.000977516 0.999999 0.000977516 
2.64027 13.5 0.375047 0.000977516 0.999999 0.000977516 
5.26991 13.5 0.321424 0.000977516 0.999999 0.000977516 
4.29251 13.5 0.323694 0.000977516 0.999999 0.000977516 
1.97631 13.5 0.325437 0.000977516 0.999999 0.000977516 
5.66805 13.5 0.309478 0.000977516 0.999999 0.000977516 
3.84393 13.5 0.3602 0.000977516 0.999999 0.000977516 
5.74303 13.5 0.121779 0.000977516 0.999999 0.000977516 
8.49802 13.5 0.202767 0.000977516 0.999999 0.000977516 
0.00249666 13.5 0.13468 0.000977516 0.999999 0.000977516 
9.75145 13.5 0.167054 0.000977516 0.999999 0.000977516 
-3.37865 13.5 0.66299 0.000977516 0.999999 0.000977516 
-0.283833 13.5 0.850764 0.000977516 0.999999 0.000977516 
-1.74479 13.5 0.716524 0.000977516 0.999999 0.000977516 
-4.58198 13.5 0.816489 0.000977516 0.999999 0.000977516 
-3.85418 13.5 0.716375 0.000977516 0.999999 0.000977516 
-2.21269 13.5 0.812957 0.000977516 0.999999 0.000977516 
-4.90669 13.5 0.813714 0.000977516 0.999999 0.000977516 
-1.05841 13.5 0.593086 0.000977516 0.999999 0.000977516 
-0.48284 13.5 0.679266 0.000977516 0.999999 0.000977516 
-9.22103 13.5 0.82234 0.000977516 0.999999 0.000977516 
-6.99904 13.5 0.839039 0.000977516 0.999999 0.000977516 
-7.41663 13.5 0.857153 0.000977516 0.999999 0.000977516 
-1.70457 13.5 0.895832 0.000977516 0.999999 0.000977516 
-4.76872 13.5 0.882146 0.000977516 0.999999 0.000977516 
-4.33496 13.5 0.776314 0.000977516 0.999999 0.000977516 
-2.55691 13.5 0.688913 0.000977516 0.999999 0.000977516 
-4.4771 13.5 0.929534 0.000977516 0.999999 0.000977516 
-4.03822 13.5 0.814709 0.000977516 0.999999 0.000977516 
-2.09566 13.5 0.911562 0.000977516 0.999999 0.000977516 
-1.35831 13.5 0.801722 0.000977516 0.999999 0.000977516 
-0.178891 13.5 0.959675 0.000977516 0.999999 0.000977516 
-2.22452 13.5 0.644645 0.000977516 0.999999 0.000977516 
-2.84199 13.5 0.733432 0.000977516 0.999999 0.000977516 
-1.19428 13.5 0.854093 0.000977516 0.999999 0.000977516 
-0.546599 13.5 0.867852 0.000977516 0.999999 0.000977516 
-3.13108 13.5 0.85902 0.000977516 0.999999 0.000977516 
-8.16556 13.5 0.958369 0.000977516 0.999999 0.000977516 
-5.10734 13.5 0.78376 0.000977516 0.999999 0.000977516 
-0.732817 13.5 0.714308 0.000977516 0.999999 0.000977516 
-0.0498083 13.5 0.640691 0.000977516 0.999999 0.000977516 
-2.70082 13.5 0.64121 0.000977516 0.999999 0.000977516 
-5.72414 13.5 0.733629 0.000977516 0.999999 0.000977516 
-5.82106 13.5 0.925476 0.000977516 0.999999 0.000977516 
-7.9857 13.5 0.90652 0.000977516 0.999999 0.000977516 
-7.73751 13.5 0.901189 0.000977516 0.999999 0.000977516 
-1.95702 13.5 0.677223 0.000977516 0.999999 0.000977516 
-1.91899 13.5 0.852633 0.000977516 0.999999 0.000977516 
-3.4676 13.5 0.797948 0.000977516 0.999999 0.000977516 
-1.5264 13.5 0.70595 0.000977516 0.999999 0.000977516 
-1.02154 13.5 0.909017 0.000977516 0.999999 0.000977516 
-1.01682 13.5 0.741801 0.000977516 0.999999 0.000977516 
-2.06681 13.5 0.571393 0.000977516 0.999999 0.000977516 
-3.27895 13.5 0.832305 0.000977516 0.999999 0.000977516 
-7.1921 13.5 0.826816 0.000977516 0.999999 0.000977516 
-6.36491 13.5 0.803415 0.000977516 0.999999 0.000977516 
-2.41818 13.5 0.790602 0.000977516 0.999999 0.000977516 
-5.29182 13.5 0.84255 0.000977516 0.999999 0.000977516 
-6.13986 13.5 0.82151 0.000977516 0.999999 0.000977516 
-0.253707 13.5 0.605861 0.000977516 0.999999 0.000977516 
-2.69649 13.5 0.846436 0.000977516 0.999999 0.000977516 
-3.72351 13.5 0.816488 0.000977516 0.999999 0.000977516 
-3.01135 13.5 0.76301 0.000977516 0.999999 0.000977516 
-0.867085 13.5 0.587927 0.000977516 0.999999 0.000977516 
-2.3252 13.5 0.91374 0.000977516 0.999999 0.000977516 
-10.1249 13.5 0.877585 0.000977516 0.999999 0.000977516 
-1.24099 13.5 0.663704 0.000977516 0.999999 0.000977516 
-1.51907 13.5 0.857686 0.000977516 0.999999 0.000977516 
-3.38897 13.5 0.942696 0.000977516 0.999999 0.000977516 
-5.49737 13.5 0.857084 0.000977516 0.999999 0.000977516 
-0.151153 13.5 0.757157 0.000977516 0.999999 0.000977516 
-6.59062 13.5 0.821889 0.000977516 0.999999 0.000977516 
-0.871006 13.5 0.833173 0.000977516 0.999999 0.000977516 
-4.17825 13.5 0.753606 0.000977516 0.999999 0.000977516 
11.5042 13.5 0.376394 0.000977516 0.999999 0.000977516 
8.8992 13.5 0.310833 0.000977516 0.999999 0.000977516 
6.88282 13.5 0.460694 0.000977516 0.999999 0.000977516 
10.6721 13.5 0.341159 0.000977516 0.999999 0.000977516 
9.40022 13.5 0.31336 0.000977516 0.999999 0.000977516 
13.7484 13.5 0.341082 0.000977516 0.999999 0.000977516 
10.4638 13.5 0.314421 0.000977516 0.999999 0.000977516 
13.3142 13.5 0.155896 0.000977516 0.999999 0.000977516 
11.8435 13.5 0.203043 0.000977516 0.999999 0.000977516 
13.1586 13.5 0.156273 0.000977516 0.999999 0.000977516 
12.9698 13.5 0.379507 0.000977516 0.999999 0.000977516 
14.5029 13.5 0.343111 0.000977516 0.999999 0.000977516 
7.80344 13.5 0.355658 0.000977516 0.999999 0.000977516 
14.8274 13.5 0.497613 0.000977516 0.999999 0.000977516 
10.4071 13.5 0.49172 0.000977516 0.999999 0.000977516 
14.0726 13.5 0.126069 0.000977516 0.999999 0.000977516 
13.8955 13.5 0.15594 0.000977516 0.999999 0.000977516 
12.8335 13.5 0.284782 0.000977516 0.999999 0.000977516 
7.09036 13.5 0.489161 0.000977516 0.999999 0.000977516 
13.4379 13.5 0.450202 0.000977516 0.999999 0.000977516 
12.5308 13.5 0.354034 0.000977516 0.999999 0.000977516 
14.3779 13.5 0.439285 0.000977516 0.999999 0.000977516 
13.5742 13.5 0.263438 0.000977516 0.999999 0.000977516 
10.639 13.5 0.489978 0.000977516 0.999999 0.000977516 
14.0447 13.5 0.421901 0.000977516 0.999999 0.000977516 
9.0576 13.5 0.367042 0.000977516 0.999999 0.000977516 
12.0677 13.5 0.427302 0.000977516 0.999999 0.000977516 
14.5316 13.5 0.493908 0.000977516 0.999999 0.000977516 
9.61963 13.5 0.347652 0.000977516 0.999999 0.000977516 
8.51695 13.5 0.454098 0.000977516 0.999999 0.000977516 
8.04179 13.5 0.364592 0.000977516 0.999999 0.000977516 
13.1167 13.5 0.447777 0.000977516 0.999999 0.000977516 
6.58611 13.5 0.449678 0.000977516 0.999999 0.000977516 
14.689 13.5 0.244012 0.000977516 0.999999 0.000977516 
11.1512 13.5 0.435073 0.000977516 0.999999 0.000977516 
10.2357 13.5 0.350829 0.000977516 0.999999 0.000977516 
12.3667 13.5 0.180449 0.000977516 0.999999 0.000977516 
13.8023 13.5 0.499986 0.000977516 0.999999 0.000977516 
12.1824 13.5 0.221032 0.000977516 0.999999 0.000977516 
10.0476 13.5 0.462837 0.000977516 0.999999 0.000977516 
8.32221 13.5 0.343487 0.000977516 0.999999 0.000977516 
2.94131 13.5 0.447773 0.000977516 0.999999 0.000977516 
10.9314 13.5 0.384151 0.000977516 0.999999 0.000977516 
6.34801 13.5 0.4734 0.000977516 0.999999 0.000977516 
7.41844 13.5 0.45094 0.000977516 0.999999 0.000977516 
13.2941 13.5 0.353349 0.000977516 0.999999 0.000977516 
11.3556 13.5 0.453105 0.000977516 0.999999 0.000977516 
4.6441 13.5 0.440203 0.000977516 0.999999 0.000977516 
6.0858 13.5 0.474452 0.000977516 0.999999 0.000977516 
14.3764 13.5 0.221834 0.000977516 0.999999 0.000977516 
14.8317 13.5 0.168968 0.000977516 0.999999 0.000977516 
7.60185 13.5 0.495576 0.000977516 0.999999 0.000977516 
10.8371 13.5 0.257148 0.000977516 0.999999 0.000977516 
14.209 13.5 0.336317 0.000977516 0.999999 0.000977516 
8.17166 13.5 0.499877 0.000977516 0.999999 0.000977516 
5.07214 13.5 0.397002 0.000977516 0.999999 0.000977516 
8.68573 13.5 0.270376 0.000977516 0.999999 0.000977516 
14.8564 13.5 0.317902 0.000977516 0.999999 0.000977516 
11.8843 13.5 0.497159 0.000977516 0.999999 0.000977516 
10.799 13.5 0.477352 0.000977516 0.999999 0.000977516 
12.5295 13.5 0.127457 0.000977516 0.999999 0.000977516 
7.00526 13.5 0.348578 0.000977516 0.999999 0.000977516 
13.6765 13.5 0.115948 0.000977516 0.999999 0.000977516 
11.9422 13.5 0.319927 0.000977516 0.999999 0.000977516 
11.21 13.5 0.296817 0.000977516 0.999999 0.000977516 
