ply
format ascii 1.0
comment Created by Open3D
element vertex 242
property float x
property float y
property float z
property float nx
property float ny
property float nz
end_header
4.47625 -10.39 0.238013 0.00857516 0.396493 0.917998
5.86688 -9.0475 0.572307 0.979593 0.044054 -0.196104
5.62375 -9.29042 1.90868 0.904751 -0.245489 0.348082
5.51548 -9.39889 1.13583 0.910627 -0.4 0.103725
5.85723 -9.05732 1.15435 0.934995 -0.322009 0.148645
5.52312 -8.60875 0.12562 0.716193 0.464662 -0.520727
5.54949 -9.36449 1.64459 0.911217 -0.358277 0.203277
2.3925 -8.5 2.08999 -0.16711 -0.616851 -0.769135
4.95208 -8.03792 1.752 0.625528 0.757743 -0.185853
4.52688 -7.6125 1.17059 0.0351164 0.88296 0.468132
4.65562 -7.7425 1.55935 0.102703 0.867572 0.486592
5.69937 -8.78438 1.6816 0.928474 0.294873 0.225802
5.36672 -8.4525 1.57977 0.819537 0.564841 0.0965113
4.9114 -10.0028 0.226344 -0.53118 0.374891 0.759806
4.87584 -7.96167 1.16262 0.543973 0.805466 -0.235198
5.47812 -8.56375 1.31291 0.843557 0.531487 0.0770219
2.8875 -7.72 1 -0.351743 -0.626007 -0.695982
3.97938 -8.10625 0.346212 0.0394412 0.888411 0.457352
5.90125 -9.01333 0.271823 0.970329 -0.144517 -0.193846
5.54375 -8.62875 1.90038 0.782992 0.320909 0.532861
3.67 -8.415 1.28807 -0.131305 0.801466 0.583448
5.83396 -9.08042 1.56334 0.923852 -0.171658 0.342099
3.43094 -7.50625 0.189989 -0.0290642 0.841425 0.539592
2.67562 -7.5 0.25756 -0.349249 -0.479022 -0.805334
2.60562 -8.5 1.5741 -0.212706 -0.725339 -0.654705
3.38271 -7.5 0.663128 -0.0320921 0.823116 0.566966
3.3525 -8.73375 0.995076 -0.00135045 -0.764174 -0.645009
3.5 -7.9525 0.746133 -0.107729 0.819218 0.563272
2.30594 -8.5 2.42076 -0.23113 -0.506185 -0.830876
2.5 -7.7025 0.162472 -0.373919 -0.484034 -0.791135
3.75625 -8.32875 0.327128 -0.0428403 0.771332 0.634989
4.5025 -7.58875 0.617992 0.26131 0.96485 -0.0279648
3.295 -8.16 1 -0.0189964 0.793203 0.608661
1.80312 -6.69875 1.42369 -0.475909 -0.312805 -0.821988
3.69938 -8.3875 0.833263 -0.0951986 0.820176 0.564135
4.13312 -7.9525 1.19076 -0.0669795 0.800476 0.595611
1.38812 -6.49 0.315314 -0.377244 -0.103427 -0.920321
4.635 -7.72125 0.267889 0.331876 0.923911 -0.190386
3.04062 -8.48813 1.15318 -0.219998 -0.750488 -0.623192
4.53 -7.61625 1.67657 0.150213 0.926947 0.34381
1.94156 -6.89062 1.17972 -0.475909 -0.312805 -0.821988
2.64688 -7.72625 1 0.411706 0.5728 0.708801
2.66437 -7.5 0.611578 -0.363424 -0.395279 -0.84361
-4 -0.435 0.273763 0.843066 -0.521936 -0.129701
-4 0.97875 0.200706 0.496923 0.429578 -0.75401
2.8075 -7.55625 1 -0.430882 -0.565324 -0.703384
-4 0.62125 0.754449 0.961248 -0.273815 -0.0320559
-4 0.47 1.63661 0.993504 -0.113799 6.85372e-05
-7.29125 -0.8425 4.05996 0.513174 0.834352 0.201271
-4 0.08125 0.186006 0.80864 -0.449463 -0.379585
-4 0.103333 0.532395 0.919776 -0.382147 -0.0893104
-7.3675 0.07125 2.72548 -0.494554 -0.846218 -0.198319
-6.62875 -0.93375 4.00843 0.434671 0.877109 0.204305
-6.56875 0.11375 2.09626 -0.517513 -0.8542 0.0502394
-7.75625 0.3525 2.24868 -0.667036 -0.738724 0.0966986
-7.94812 0.6975 3.60691 0.772125 0.625456 0.112371
-7.99625 0.965 2.97987 0.834654 0.542914 0.0927157
-4.12459 -0.97 0.229183 -0.593777 0.737159 0.32253
1.99156 -8.5 0.94051 0.132494 0.734257 0.665817
3.1515 -7.5 0.652798 -0.222727 -0.639051 -0.736211
-9.15312 2.74562 3.43718 0.775531 0.630754 0.026476
5.55956 -9.35456 0.623826 0.903268 -0.425952 0.0516811
-7.99438 0.9425 0.902364 0.848298 0.529516 0.00164186
4.67079 -10.2412 0.575974 -0.327909 0.395441 0.857964
1.41438 -8.5 0.764072 -0.266892 -0.581689 -0.768379
-6 -0.0625 0.300392 0.519358 0.847875 -0.106655
-8.99781 2.59083 3.13953 0.772463 0.635059 -0.000924822
-6.92911 0.0121429 2.15943 0.42337 0.905954 -0.00235474
-7.815 0.425 3.19587 0.805913 0.580704 0.115269
5.50271 -9.41167 0.197064 0.946386 -0.280287 -0.160601
-7.99938 0.99125 0.617004 0.846973 0.531461 0.0136396
1.97062 -8.5 2.34297 0.221334 0.428951 0.875792
-4.04219 0.0309375 2.09178 0.975833 -0.218514 0.000889756
-8.96975 2.5635 2.61191 0.764277 0.644859 -0.00612912
0.81125 -8.5 1.17643 0.401556 0.317242 0.859133
-4.40813 -0.977125 2.08323 0.443759 -0.895817 -0.0242808
-8.23375 1.82625 3.49865 0.832863 0.552769 0.0280195
-4 0.617917 2.49786 0.986777 -0.161487 0.0139242
-9.01078 2.60312 2.05489 -0.703285 -0.710908 -0.000726855
0.888437 -8.5 1.60912 0.356395 0.285341 0.889698
-4.47125 -1 1.55472 0.456415 -0.889351 0.0271943
-8.49365 2.08667 0.59248 0.830497 0.553361 -0.0637644
-7.99959 1.66875 3.57401 0.865991 0.485155 0.121179
-8.09438 -0.40875 4 0.680824 0.730523 0.0530646
-8.94334 2.53583 1.56451 -0.695494 -0.718516 -0.00474884
4.68875 -10.2134 1.92041 0.492122 -0.530589 0.690139
-6 0.11625 2.65431 0.822707 0.567981 -0.0234551
-4.50327 -1 1.09858 0.363631 -0.931463 0.012247
5.19188 -8.2775 1.11139 0.742395 0.669753 -0.0167368
-9.26375 2.85625 2.23348 0.70464 0.709565 0.000167435
-7.99312 1.07 2.37231 0.888549 0.458588 -0.0132968
1.63709 -7.48458 1.60618 -0.290111 -0.319558 -0.902063
-4 -0.4875 3.38361 0.887801 -0.449111 0.100542
-4.9333 -1 2.60283 0.0892348 -0.995203 0.0400948
-5.47049 -1 3.05744 -0.16676 -0.985267 0.0379502
-5.95729 -0.836667 3.48772 0.46728 0.861579 0.198321
-4 0.6875 2.17132 0.993914 -0.109613 -0.010929
-9.24562 2.83875 0.680787 0.763827 0.644908 -0.0257493
4.79438 -10.12 1.88145 0.492122 -0.530589 0.690139
-4 0.101875 3.14954 0.945089 -0.315598 0.0848873
-6 -0.36625 0.13515 0.500874 0.857145 -0.120112
-4 0.97375 3.3105 0.725538 0.360451 0.586233
-4 -0.5175 0.702825 0.850944 -0.504094 -0.14759
-5.87529 -0.921635 2.55106 -0.631272 -0.774718 0.0361535
-5.45423 -0.987917 2.0585 -0.332533 -0.943016 0.0119367
-4.87208 -1 3.47336 -0.0879443 0.982022 -0.167026
1.46344 -6.49344 1.60542 0.400196 0.180814 0.898415
1.08328 -6.35875 1.6053 0.455645 0.203186 0.866662
-4.54479 -1 3.48227 -0.301357 0.941706 -0.149579
-8.49406 2.0875 3.57991 0.820513 0.570514 0.0356763
-9.37188 2.965 2.89974 0.705772 0.708429 0.00386105
-7.99375 1.06125 3.53525 0.830524 0.555915 -0.0344762
-7.81062 1.58125 0.507847 0.851692 0.52262 -0.0385826
-4 -0.49375 2.63561 0.938002 -0.346078 -0.0195323
-5.00536 -1 1.58482 -0.00378241 -0.999962 0.00786029
-5.94797 -0.872188 0.658945 -0.546642 -0.833106 -0.0843626
-5.59125 -1 0.349845 0.273056 0.937936 0.213814
-7.6175 0.21875 1.51184 -0.529614 -0.847145 -0.0430659
-7.89229 0.565 0.608341 0.712515 0.687469 0.140391
2.97187 -7.5 0.163905 -0.246811 -0.55156 -0.796785
-8.96354 2.55625 1.15899 0.746305 0.665398 -0.0165694
4.56719 -10.3025 1.62357 0.296554 -0.540006 0.787686
1.43063 -8.5 1.45162 0.263783 0.494944 0.827918
-9.29625 2.88875 0.117392 0.803452 0.595008 -0.0207572
-6 0.074375 0.945957 0.608058 0.783284 -0.129353
-4.46221 -1 0.630647 0.365677 -0.918495 -0.150492
0.258125 -8.5 2.31468 -0.0149255 -0.26364 -0.964506
-9.40375 2.99625 3.47261 0.775531 0.630754 0.026476
-8.12938 1.58875 4 0.820414 0.570047 -0.0443459
-7.99125 0.90625 0.244456 0.758995 0.642893 0.103029
-7.99719 1.59062 2.93283 0.868375 0.495473 0.0207488
-9.3375 2.93 0.670296 0.767528 0.640593 -0.0232869
-8.57675 2.16975 0.993613 0.797284 0.602246 -0.0404717
-4.98141 -1 0.676138 0.109044 0.98093 0.160893
-5.91597 -0.915278 1.51132 -0.517691 -0.855561 0.00344655
-5.46725 -1 1.09942 -0.373849 -0.924691 -0.0719982
-4 -0.32 3.26369 0.902739 -0.422724 0.0797883
-5.87451 -0.967411 1.15574 -0.516823 -0.853504 -0.0665174
-5.49915 -1 1.6049 -0.370038 -0.929016 0.00113746
-4.92765 -1 0.245191 0.0341511 0.88315 0.467846
-7.44375 0.10875 1.16835 -0.488833 -0.865208 -0.111613
-4.05243 -0.952941 1.6257 0.665898 -0.741467 0.0824934
4.22875 -7.8575 0.579681 0.162039 0.98417 0.0717842
-8.23438 1.8275 2.00681 0.840626 0.540265 0.0382261
1.02437 -8.5 1.94239 0.249883 0.289447 0.924002
1.62625 -6.35 1.08065 -0.380086 -0.150221 -0.912671
-9.30938 2.9025 2.3729 0.70464 0.709565 0.000167435
-8.04656 1.6775 1.09735 0.868184 0.49411 -0.0459598
-8.51078 2.10375 3.07854 0.804655 0.59344 0.018929
-4.45005 -1 3.10136 0.39033 -0.920318 0.0256184
5.76688 -8.85125 1.89846 0.92182 0.142267 0.360567
-6.83781 0.015625 1.13527 0.466089 0.877943 -0.109437
5.23688 -8.3225 1.64821 0.726816 0.682157 0.080004
-7.89062 1.53875 2.11743 0.898179 0.439629 -0.000512713
-9.35104 2.94375 1.70721 -0.702714 -0.711473 -0.000146313
-8.46032 2.05375 2.26065 0.798898 0.60145 -0.00446969
-7.99833 0.9825 2.09374 0.868709 0.495171 -0.0122456
-8.10719 1.70063 2.42436 0.873033 0.487656 0.00199948
-8.55525 2.1485 1.56931 0.77694 0.629463 0.0118987
-7.99312 0.92875 1.46026 0.866934 0.498062 -0.0189722
-9.41562 3.00812 1.12673 -0.695494 -0.718516 -0.00474884
5.46218 -8.54813 0.542692 0.757673 0.604765 -0.245338
-4 0.961875 2.65805 0.996225 0.0689085 0.0527922
4.67062 -10.2429 1.06991 0.80106 -0.59837 0.0159985
-8.30875 1.9025 0.217767 0.835348 0.54711 -0.0535188
-6 -0.03625 1.39332 0.766895 0.635148 -0.0919739
-4.54969 -1 0.25369 -0.227226 0.899186 0.373943
5.59688 -8.6825 0.965496 0.898481 0.437085 -0.0410825
4.55812 -7.7225 1.07138 0.25692 0.966361 0.0117463
-6.89938 0.01 0.303495 0.57141 0.811219 -0.124156
-7.82312 0.435 1.14014 0.769652 0.637959 0.0253948
-6.82792 0.0208333 1.74178 -0.4261 -0.902302 0.0654945
-7.95812 0.73 1.53053 0.830405 0.554239 -0.0569741
-7.47625 0.12625 0.660717 0.549386 0.835145 0.0266194
1.60125 -7.88875 0.958278 0.444439 0.312945 0.839368
2.92437 -8.51625 1.4558 -0.270187 -0.731299 -0.626259
0.89625 -6.125 0.844934 0.431453 0.15987 0.887857
-4.08903 -0.9675 2.11273 0.63742 -0.770473 -0.00823356
5.06075 -9.8535 1.73152 0.874216 -0.460409 0.154176
-4 -0.02375 2.58296 0.974327 -0.222733 0.0328224
-9.2425 2.835 0.280808 0.779614 0.625712 -0.0262259
-6 -0.409583 1.5398 0.775253 0.631645 -0.00250125
1.92688 -7.3975 1.07056 -0.488052 -0.315284 -0.81388
-5.98938 0.75 3.9 0.0557658 -0.2364 -0.970054
5.7675 -9.1475 0.706144 0.930766 -0.356249 0.0822276
4.37344 -7.71312 0.525333 0.26131 0.96485 -0.0279648
-7.9225 0.615 2.57505 0.838323 0.544013 -0.0355638
-6.96167 0.0102083 2.58672 0.515475 0.854105 0.0692101
-6 -0.93125 0.335803 0.480712 0.866974 0.131422
-5.45625 -1 0.697633 -0.345394 -0.93133 -0.115446
-4.97014 -1 1.08983 -0.0440784 -0.99894 0.013301
5.00413 -9.91001 1.15416 0.86762 -0.493691 0.0592067
-6 -0.560625 2.91786 -0.652551 -0.755221 -0.0618007
-4.12438 -0.99 3.9 -0.588179 0.709942 -0.387333
-6 0.63375 1.55707 -0.656471 -0.734421 0.172256
-4 0.17125 1.14661 0.967313 -0.251 -0.0361207
-4 0.5075 3.148 0.966594 -0.255905 0.0144676
-5.95812 -0.47125 2.04104 0.725465 0.688256 -0.00174661
1.8775 -7.31 1.41819 0.547812 0.324955 0.770913
-4.01844 -0.923125 3.11409 0.68281 -0.729774 0.0346474
-6.16812 0.44625 2.74744 -0.613588 -0.77562 -0.148062
-5.81312 -0.68875 3.9 0.242075 0.968527 -0.0579184
1.11938 -6.125 1.13871 0.431453 0.15987 0.887857
-4.03078 -0.942187 0.568727 0.756703 -0.639299 -0.136741
-4.08464 -0.961071 1.1474 0.590755 -0.803479 -0.0736879
3 -8.72125 2.044 0.112111 0.709529 0.695701
1.29875 -6.31 0.473367 -0.377244 -0.103427 -0.920321
-8.48646 2.08 2.57345 0.793799 0.608179 -0.00101562
-6 -0.02 3.1511 0.73335 0.677517 0.0562937
-8.03475 1.62125 1.54662 0.892958 0.449904 -0.0146123
-4.45648 -1 2.60566 0.37659 -0.925489 -0.0406126
0.468125 -6.31625 0.695785 0.455645 0.203186 0.866662
-4 -0.373333 2.02933 0.945572 -0.325009 -0.0162227
-4 0.8525 3.64204 -0.610849 -0.378846 -0.695226
-5.41441 -1 2.58118 -0.283599 -0.958398 0.0323213
-4.98505 -1 2.95005 -0.07668 -0.994388 0.0728863
-5.88367 -1 2.09941 -0.553195 -0.832428 0.0322484
-6 -0.333333 1.1856 0.734716 0.678147 -0.0175855
-9.23562 2.82875 2.72309 0.705772 0.708429 0.00386105
-8.87938 2.4725 0.61945 0.77879 0.626086 -0.0387686
-5.9725 1 2.6137 0.0712023 0.997188 0.0233838
1.995 -8.5 1.54614 0.137127 0.691293 0.709444
-4 0.12 1.51745 0.970723 -0.240028 -0.00916719
-6 -0.434375 2.49191 0.792675 0.609472 -0.0144898
3 -9.32875 2.12337 -0.327761 -0.597876 -0.731517
-4.03296 -0.942 2.57234 0.57217 -0.820114 -0.00592943
-6.10292 0.466667 2.14398 -0.585156 -0.810817 0.0129754
-4.03175 -0.933 3.68264 -0.68901 0.637368 -0.345003
-6 0.64125 1.21824 -0.535661 -0.800296 0.269432
5.03812 -9.87565 0.501595 0.86762 -0.493691 0.0592067
1.54031 -6.69 1.71922 -0.369517 -0.30991 -0.876021
-4 0.05625 3.62241 0.85943 -0.41806 0.294288
-8.93438 2.5275 0.174969 0.809655 0.586195 -0.0288789
-6 -0.274167 0.650456 0.56978 0.82155 -0.0201524
-4 0.93125 1.49033 0.967255 0.228096 -0.111307
0.666458 -6.38083 1.57133 0.4098 0.270035 0.871289
-5.3035 -1 3.61649 -0.0285528 0.994395 -0.1018
-5.88411 -1 3.02494 -0.480906 -0.876417 -0.024967
-4.99263 -0.975987 2.06499 0.000443219 -1 0.000446454
-4 -0.4 1.12211 0.914103 -0.405405 -0.00794514
-4 -0.48 1.7011 0.933578 -0.3544 0.0532166
-4 0.7675 0.872514 0.985031 -0.164388 -0.0518691
