ply
format ascii 1.0
comment Created by Open3D
element vertex 1037
property float x
property float y
property float z
property float nx
property float ny
property float nz
end_header
-5.85 -0.65 2.35 0.983691 0.173162 0.0486478
-5.25 -1.05 3.65 -0.0289486 0.997289 -0.0676517
-3.85 -0.95 2.05 -0.20386 0.978937 0.0111048
-5.55 -0.95 1.95 -0.0849468 -0.995588 -0.039851
-5.85 -0.55 3.45 0.933258 0.349622 -0.0824227
-3.85 -0.95 0.55 0.671775 -0.74075 -0.0028602
-5.85 0.15 1.65 0.980546 0.134766 0.142714
-5.85 -0.25 1.75 0.995682 0.0914329 0.0160567
-5.85 -0.95 1.25 0.435049 0.899408 -0.0423936
-5.85 -0.85 2.15 0.304365 0.934979 0.182143
-5.85 -0.75 0.65 0.841473 0.538718 0.0413111
-4.35 -0.95 1.65 0.0384184 -0.997514 -0.05908
-5.15 -0.95 1.65 -0.06069 -0.998115 -0.00913123
-5.85 -0.85 1.45 -0.588387 -0.788749 0.177977
-5.65 -0.95 2.25 -0.0543284 -0.996489 -0.0637041
-5.85 -0.95 2.85 -0.632777 -0.75619 0.166646
-4.95 -0.95 3.05 -0.0186881 -0.998663 -0.0482023
-5.85 -0.95 3.35 -0.367948 -0.928447 0.0509873
-5.45 -0.95 1.15 -0.15714 -0.986111 0.0537693
-5.85 -0.65 2.75 0.950377 0.288153 -0.117265
-5.85 -0.25 0.95 0.989729 0.125956 -0.0676193
-5.55 -0.95 1.45 -0.0167893 -0.998492 -0.0522601
-3.95 -0.95 1.35 -0.195256 0.980682 -0.0117785
-5.85 -0.55 1.15 0.986283 0.123988 -0.108963
-5.35 -0.95 0.95 -0.16885 -0.9847 -0.0430671
-4.35 -0.95 2.75 0.00643118 -0.995933 -0.0898674
-5.45 -0.95 2.75 -0.0355558 -0.999011 0.0267163
-4.65 -0.95 1.05 0.0127498 -0.999674 0.0221259
-4.75 -1.05 1.45 0.0502711 -0.997977 -0.0389293
-4.95 -0.95 1.85 0.0657615 -0.997827 0.00410259
-5.85 -0.35 1.55 0.997811 0.0659816 0.00444656
-4.95 -0.95 3.55 0.0215451 -0.999727 0.00900397
-5.85 -0.45 2.35 0.987998 0.153352 0.0185127
-5.45 -1.05 2.35 -0.0880417 -0.996024 -0.0136024
-5.45 -0.95 3.75 0.13079 0.985283 -0.110049
-4.55 -0.95 0.65 -0.00506698 -0.997541 0.0698968
-5.75 -0.95 1.15 -0.246988 -0.968586 0.0289561
-5.55 -0.95 1.75 -0.144535 -0.98784 -0.0572919
-5.85 -0.15 2.85 0.974946 0.216041 -0.0529845
-5.85 -0.95 2.35 0.849788 0.522254 0.0714923
-4.95 -0.95 2.45 0.0296808 -0.998247 0.0512139
-5.45 -0.95 2.05 -0.0851472 -0.993253 -0.0787322
-5.75 -0.95 1.35 -0.117501 -0.990802 0.0671193
-4.55 -0.95 2.15 -0.0740081 0.997196 0.0111148
-5.65 -0.95 2.95 -0.27074 -0.962211 -0.0291466
-5.75 -1.05 2.45 -0.0711799 -0.995433 -0.0636174
-5.85 -0.85 1.65 -0.679673 -0.724903 -0.112068
-5.25 -0.95 1.15 -0.0990195 -0.994845 -0.0218982
-5.85 -1.05 2.05 0.0309914 0.998954 0.0336089
-4.15 -0.95 3.85 -0.277885 0.959828 -0.0388715
-5.95 -0.65 1.55 0.995101 0.0986856 -0.0059534
-4.75 -1.05 2.95 0.0194512 0.997463 0.0684756
-5.35 -0.95 1.55 -0.121629 -0.991899 -0.0366317
-5.85 -1.05 3.15 0.635834 0.759842 0.135483
-5.45 -1.05 1.95 -0.0409255 -0.997895 -0.0503002
-5.95 -0.75 1.35 0.949509 0.310608 0.044213
-5.85 -1.05 2.75 0.312181 0.946543 -0.0812393
-5.85 -0.95 1.55 -0.33656 -0.938383 -0.078514
-5.95 -0.65 2.95 0.982475 0.180062 -0.0481737
-3.95 -1.15 3.65 0.416808 -0.90763 0.0497859
-5.65 -1.05 3.35 -0.16938 -0.982643 0.0756486
-3.95 -1.05 1.65 0.23689 -0.968434 -0.0775753
-3.85 -0.85 3.35 0.92035 -0.39102 0.00770379
-3.95 -0.95 2.45 0.0960597 -0.994484 -0.0421302
-5.95 -0.95 1.85 -0.142003 -0.984514 -0.102802
-5.75 -0.95 1.85 -0.167865 -0.982176 -0.0845652
-3.95 -1.05 0.45 0.302158 -0.952692 -0.0328471
-5.85 -1.05 2.25 0.0550174 0.99848 -0.0031967
-4.85 -1.05 3.35 0.0277011 -0.999196 0.0289904
-5.25 -0.95 3.25 0.0120636 -0.999231 -0.0373042
-5.45 -0.95 1.35 -0.080062 -0.996065 0.0380159
-4.05 -0.95 1.05 0.150966 -0.988216 0.0252825
-2.45 -1.25 -0.05 -0.346208 -0.0529979 -0.93666
-5.95 -0.65 2.65 0.979773 0.195768 0.0414775
-5.45 -1.05 2.55 -0.0218158 -0.996513 0.0805364
-2.25 -0.75 -0.15 -0.208669 0.0260792 -0.977638
-4.55 -0.95 3.35 -0.00262616 -0.998717 0.050576
-5.95 -0.85 1.15 0.924368 0.37002 -0.0928878
-5.95 -0.85 3.35 0.793457 0.601538 -0.0926222
-5.95 -0.35 1.95 0.998482 0.0200761 0.0512932
-5.95 -0.15 1.65 0.993095 0.115697 0.019418
-5.95 -0.45 1.25 0.991814 0.123814 -0.0312261
-5.05 -0.95 0.65 0.0254654 -0.992447 0.119998
-5.95 -0.05 1.35 0.995248 0.0953321 0.0198251
-6.05 0.75 3.85 0.543857 0.744875 0.386497
-5.95 0.15 2.75 0.943073 0.228447 -0.241712
-5.75 -1.05 0.95 -0.196785 -0.97608 -0.0924333
-5.95 -0.15 0.85 0.994666 0.0675132 -0.0779786
-5.95 0.55 1.75 0.898916 -0.0885809 0.429074
-5.85 0.85 1.05 0.997544 0.0645991 0.0270773
-5.95 0.95 2.65 -0.224089 0.97413 0.0292473
-4.85 -1.05 0.45 -0.00301872 -0.987526 0.157427
-5.95 -0.45 2.55 0.99237 0.122518 0.0138455
-4.05 -1.05 0.05 0.299091 -0.944737 -0.134226
-5.95 0.35 0.95 0.925657 0.307149 -0.22095
-5.95 -0.75 0.75 0.911933 0.408421 -0.0396297
-4.05 -1.05 0.35 0.216752 -0.973516 -0.0726936
-5.95 -0.95 0.75 -0.399735 -0.896137 -0.192744
-5.95 -0.65 3.45 0.933258 0.349622 -0.0824227
-5.95 -0.75 1.05 0.948853 0.304087 -0.0849087
-6.05 0.45 2.15 -0.408178 0.719433 -0.561968
-4.55 -1.05 0.15 0.0539341 -0.994616 0.0884867
-5.35 -1.05 0.55 -0.0371055 -0.998007 0.0510473
-5.95 -0.05 0.35 0.981669 0.136733 -0.132778
-3.35 -1.35 -0.05 0.17685 0.980214 -0.0889121
-6.75 -0.05 2.25 -0.0495952 -0.997243 -0.0551972
-5.95 -0.75 0.65 0.945446 0.319364 0.0643281
-4.65 -0.95 1.05 0.0127498 -0.999674 0.0221259
-5.95 -0.35 0.95 0.990768 0.0847802 -0.105793
-6.75 -0.05 1.85 -0.127712 -0.982779 0.133547
-5.85 -0.95 0.55 0.391411 0.91753 0.0702524
-5.95 -0.75 2.75 0.954555 0.263564 -0.139136
-6.85 -0.05 1.65 -0.0610262 -0.998134 -0.0020305
-6.85 0.05 2.25 0.190451 -0.981437 0.0225965
-5.15 -1.05 0.15 -0.037317 -0.993752 0.105187
-4.55 -0.95 3.35 -0.00262616 -0.998717 0.050576
-6.95 -0.05 2.55 -0.0260255 -0.996533 0.0790292
-5.95 0.75 -0.15 -0.488687 -0.604218 0.629369
-7.05 0.05 1.85 -0.258498 -0.965177 0.0401498
-5.95 -0.35 0.15 0.775222 0.608749 -0.168688
-7.05 0.05 2.15 -0.246932 -0.968676 0.026301
-6.95 -0.05 1.85 0.00871427 0.999912 -0.00999979
-5.95 0.65 1.25 -0.234152 -0.89456 0.380702
-5.55 -0.95 0.35 -0.19765 -0.980143 0.0159598
-7.15 0.05 2.75 0.221671 0.954241 -0.200713
-6.75 0.05 2.45 0.151977 -0.985247 0.0786817
-5.95 -0.15 1.35 0.996784 0.080001 0.00463897
-5.35 -0.95 0.05 -0.112116 -0.991453 0.066717
-5.95 -0.35 1.95 0.998482 0.0200761 0.0512932
-5.95 -0.45 2.15 0.993924 0.10942 0.0119482
-4.65 -0.95 -0.05 -0.0713549 0.997398 0.0102608
-5.95 -0.55 0.05 0.846468 0.53232 -0.011275
-5.55 -0.95 2.95 -0.0343443 -0.999104 0.0247261
-6.75 0.05 2.05 0.219245 -0.975222 0.0295522
-6.85 0.25 0.95 0.201427 0.97896 0.0326361
-4.45 -1.05 0.45 0.0411912 -0.997335 0.0602214
-6.05 -0.45 2.45 0.979337 0.1954 0.0521305
-6.15 0.35 1.95 0.632934 0.543465 0.551398
-4.95 -0.95 1.85 0.0657615 -0.997827 0.00410259
-5.95 -0.95 1.85 -0.142003 -0.984514 -0.102802
-5.95 -0.55 1.55 0.992565 0.0859145 0.0862188
-4.65 -1.05 2.15 0.0593628 -0.998166 -0.0118601
-6.35 0.05 2.45 0.191586 -0.145353 -0.970653
-4.75 -1.05 2.95 0.0194512 0.997463 0.0684756
-6.85 -0.05 1.35 -0.198762 -0.978652 0.0522942
-5.95 -0.15 0.65 0.991636 0.0990349 -0.0827689
-4.45 -0.95 1.35 0.0282447 -0.999538 -0.0111964
-5.95 -0.65 2.65 0.979773 0.195768 0.0414775
-5.95 -1.05 -0.05 -0.507763 -0.858043 -0.0770635
-5.85 0.05 2.35 0.977621 0.187062 0.096251
-6.85 -0.05 0.25 0.423139 0.854099 -0.302437
-5.05 -1.15 -0.25 0.0673399 0.994909 -0.0749739
-5.45 -1.05 2.35 -0.0880417 -0.996024 -0.0136024
-6.15 0.45 2.25 -0.385064 0.891552 -0.238456
-5.95 -1.05 2.35 0.0278595 0.999609 -0.00232852
-5.95 0.05 2.65 0.94507 0.314122 -0.0903844
-5.95 -0.45 0.55 0.956382 0.291799 0.0136895
-5.95 -0.95 1.05 -0.622085 -0.782334 -0.0310508
-5.55 -1.05 2.15 -0.0564562 -0.998402 0.00247441
-4.05 -1.05 3.05 0.255486 -0.96624 0.0332812
-4.75 -0.95 1.15 0.0657292 -0.997535 -0.0245596
-5.05 -1.05 2.95 0.0291569 0.99834 0.0496767
-5.75 -1.05 2.85 -0.0859702 -0.996234 0.0112695
-5.35 -1.05 1.95 -0.00704094 -0.994395 -0.105498
-5.95 0.75 1.45 0.969175 0.178828 0.169473
-4.55 -1.05 0.85 0.0658534 -0.99369 -0.0907969
-5.45 -1.05 0.95 0.00758924 -0.998752 -0.049363
-5.65 -1.05 1.75 -0.0874809 -0.995767 -0.0281931
-6.05 -0.05 3.15 0.960444 0.249235 -0.124217
-4.55 -1.05 3.25 0.00605404 -0.999498 0.0310849
-5.85 -1.05 2.05 0.0309914 0.998954 0.0336089
-3.95 -0.95 3.55 0.422225 -0.906323 0.0174492
-5.25 -1.05 3.05 -0.00670075 -0.999966 -0.00483431
-4.85 -1.05 0.35 -0.0566635 -0.989955 0.129532
-5.95 -1.05 2.85 0.733108 0.666055 -0.13756
-5.85 -1.05 1.15 0.285212 0.957369 0.0458215
-5.65 -1.05 3.05 -0.13897 -0.987433 0.0752578
-3.95 -1.05 2.65 -0.181357 0.98234 0.0460193
-5.45 -1.05 2.55 -0.0218158 -0.996513 0.0805364
-3.95 -0.95 1.45 -0.174183 0.984633 0.0125612
-4.75 -1.05 3.45 -0.0056236 0.999799 -0.0192314
-5.95 -0.15 0.75 0.997515 0.0469663 -0.0525158
-5.95 -0.85 1.65 0.824882 0.560919 -0.070289
-4.05 -0.95 3.75 0.345375 -0.937566 0.0410613
-5.95 -1.05 2.25 -0.00425588 -0.999241 -0.038719
-5.95 -0.55 2.35 0.986414 0.154095 0.0569315
-5.75 -0.95 1.35 -0.117501 -0.990802 0.0671193
-5.45 -1.05 2.95 -0.0411132 -0.999085 0.0117954
-4.55 -0.95 2.45 0.0356623 -0.999153 -0.0205257
-4.95 -1.05 1.55 0.0188231 -0.999665 0.0177908
-5.25 -1.05 1.15 -0.0962805 -0.991489 -0.0876318
-5.35 -1.05 2.85 0.00400849 -0.999926 -0.0115181
-5.15 -0.95 0.65 -0.0122866 0.988666 -0.149626
-4.85 -0.95 0.65 -0.0155246 -0.995599 0.0924225
-5.95 -1.05 2.35 0.0278595 0.999609 -0.00232852
-5.45 -0.95 1.55 0.017923 -0.995983 -0.0877264
-5.75 -1.05 2.55 -0.0544555 -0.99753 -0.0443753
-3.95 -0.95 0.25 0.712983 -0.682781 -0.159576
-5.85 -1.05 1.55 0.21835 0.973016 0.0745916
-5.25 -1.05 0.95 -0.085078 -0.990253 -0.110279
-5.35 -1.05 2.25 -0.145659 0.989237 0.0139337
-5.45 -1.05 1.35 -0.0677391 -0.997661 -0.00915924
-3.95 -0.95 1.75 -0.363964 0.930993 -0.0279771
-4.55 -1.05 1.95 0.0505337 -0.998536 -0.0192804
-4.85 -1.05 2.65 -0.0106304 -0.999875 -0.0117354
-4.35 -1.05 3.05 0.0278889 -0.999223 0.027854
-5.45 -0.95 1.85 -0.0652551 -0.994242 -0.0850002
-5.25 -1.05 2.45 0.167894 -0.982161 0.0846793
-4.45 -1.05 1.15 0.0468533 -0.998682 0.020965
-5.45 -1.05 1.65 -0.0531954 -0.985214 -0.162859
-4.85 -1.05 1.65 -0.0759545 0.996764 -0.0263257
-4.25 -1.05 0.65 0.0434813 -0.995572 0.0833396
-4.15 -1.05 1.95 0.121417 -0.991744 0.0412579
-5.05 -1.05 1.35 -0.0408135 -0.999165 -0.00176718
-4.85 -1.05 0.95 -0.117348 -0.982015 -0.147908
-5.25 -1.05 1.55 -0.129745 -0.988202 -0.0813866
-5.15 -1.05 1.95 0.0549511 -0.998487 0.00176097
-5.45 -0.95 1.15 -0.15714 -0.986111 0.0537693
-4.95 -1.05 2.25 0.00463211 -0.997568 -0.0695391
-4.95 -1.05 2.05 0.0329878 -0.998584 -0.0417418
-5.35 -1.05 2.05 0.0669245 -0.997101 -0.0362122
-2.05 -0.55 -0.25 0.159531 0.0764081 0.984232
-4.25 -0.95 0.95 0.0600711 -0.997718 0.0308129
-4.25 -1.05 1.25 0.121906 -0.992041 0.0315332
-4.85 -1.05 1.35 0.143211 -0.989647 0.00944436
-5.25 -0.95 2.75 0.0650175 -0.997768 -0.0152553
-5.05 -1.05 1.75 0.00119638 -0.999483 0.0321372
-5.35 -1.05 1.55 -0.128553 -0.988311 -0.0819511
-5.15 -1.05 2.35 0.134296 -0.988423 0.070595
-4.95 -1.05 2.75 -0.00803198 -0.998497 -0.0542171
-4.75 -1.05 2.45 0.00880216 -0.999899 -0.0111446
-4.25 -1.05 2.45 0.078908 -0.996456 -0.0291298
-4.85 -1.05 3.05 -0.00121158 0.999958 0.00904734
-4.95 -1.05 1.15 0.0409609 -0.996986 -0.0658919
-4.35 -1.05 2.15 0.0880401 -0.995138 0.0441525
-5.35 -1.05 2.55 0.0659933 -0.995429 0.0690355
-5.25 -1.05 1.85 0.087883 -0.996026 -0.0144189
-4.25 -1.05 2.75 0.0254339 -0.989007 -0.145666
-4.75 -1.05 1.85 0.007276 -0.999969 -0.0029042
-5.15 -1.05 2.95 0.0255616 0.998347 0.0514858
-5.05 -1.05 1.15 -0.0157007 -0.995938 -0.0886627
-4.35 -1.05 1.45 0.0621622 -0.998046 -0.00635786
-4.55 -0.95 1.55 0.0831549 -0.996412 -0.0157761
-5.25 -1.05 1.25 -0.124444 -0.992094 0.0162346
-4.55 -1.05 1.05 -0.0882008 0.995487 -0.0350201
-4.75 -0.95 1.45 0.0502711 -0.997977 -0.0389293
-4.35 -1.05 3.35 0.0537928 -0.998523 -0.00759485
-5.15 -1.05 1.55 -0.06576 -0.996539 -0.0508553
-4.25 -0.95 1.95 0.0967464 -0.995288 -0.00646364
-3.95 -1.05 1.75 -0.212184 0.976971 0.0224929
-4.25 -0.95 0.75 0.0222522 -0.999692 0.0109949
-4.85 -0.95 1.25 0.0731122 -0.997311 -0.00509041
-4.75 -0.95 2.05 -0.00104629 -0.999622 -0.0274622
-4.15 -0.95 1.65 0.164754 -0.985351 -0.0440381
-4.55 -0.95 1.25 0.0307382 -0.999437 -0.0134415
-4.95 -0.95 1.65 -0.0691504 -0.996833 0.0392667
-4.25 -0.95 2.55 0.0653186 -0.996318 -0.055536
-4.35 -1.05 2.95 0.0283167 -0.996426 -0.0795819
-5.05 -0.95 1.95 0.122962 -0.991084 -0.0513147
-4.95 -0.95 2.65 -0.026562 -0.999231 0.0288578
-4.55 -1.05 2.95 0.00199363 -0.999904 0.0137147
-5.05 -1.05 2.25 0.00258615 -0.999823 -0.0186177
-4.55 -0.95 1.75 0.0290365 -0.999567 0.00478744
-4.25 -0.95 1.15 0.0746814 -0.99688 0.0255634
-5.05 -1.05 1.85 0.0623736 -0.997365 0.0370425
-5.35 -0.95 2.45 0.087294 -0.994654 0.0551574
-4.75 -1.05 2.35 0.0201939 -0.997683 0.0649658
-4.95 -1.05 2.15 -0.0110409 -0.998681 -0.0501517
-3.85 -0.95 0.75 0.777603 -0.622182 0.0906853
-3.95 -0.95 1.95 -0.268836 0.961495 -0.0570546
-5.25 -0.95 1.55 -0.19208 -0.980464 -0.0423631
-3.95 -0.95 1.25 -0.204403 0.977266 0.0563082
-5.05 -0.95 2.85 0.0158019 0.989329 0.14484
-4.65 -0.95 0.95 0.00707199 -0.999399 0.0339277
-4.05 -0.95 3.25 -0.485574 0.874069 0.014905
-4.95 -1.05 1.05 0.00944228 -0.997819 -0.0653308
-5.25 -1.05 1.85 0.087883 -0.996026 -0.0144189
-4.65 -0.95 2.65 -0.00706739 -0.99878 -0.0488636
-5.25 -0.95 2.35 0.115985 -0.993249 -0.00192073
-5.15 -0.95 2.25 -0.0597576 0.997886 0.0255451
-4.95 -0.95 1.95 0.0233716 -0.999706 0.00643008
-5.35 -1.05 2.75 -0.0392712 -0.997203 0.0635973
-4.75 -0.95 1.85 0.007276 -0.999969 -0.0029042
-5.15 -0.95 1.85 0.0465077 -0.994419 -0.0946944
-5.15 -0.95 1.05 -0.107286 -0.98905 -0.101337
-3.85 -0.95 2.35 -0.144204 0.988793 0.0386398
-5.35 -0.95 2.55 0.0690866 -0.997047 0.0335248
-5.35 -1.05 2.15 0.0235132 -0.999564 -0.0178419
-5.15 -0.95 1.95 0.0366718 -0.999246 0.0127399
-4.15 -0.95 2.25 0.127742 -0.991746 0.0110721
-5.25 -1.05 1.25 -0.124444 -0.992094 0.0162346
-5.35 -1.05 1.75 -0.0141478 -0.999463 -0.0295625
-5.05 -1.05 1.45 -0.0690099 -0.995968 0.0573165
-5.45 -1.05 2.65 0.0202128 -0.997829 0.0626741
-2.35 -0.45 -0.15 0.155248 0.0479281 0.986712
-2.15 0.45 -0.15 -0.102209 -0.0116635 -0.994695
-4.55 -0.95 2.55 0.0356357 -0.998968 -0.0281505
-5.35 -1.05 2.25 -0.145659 0.989237 0.0139337
-5.35 -1.05 1.95 -0.00704094 -0.994395 -0.105498
-5.25 -1.05 2.15 0.075872 -0.996988 -0.0160873
-3.95 -0.95 0.65 0.597741 -0.791885 0.124998
-4.65 -0.95 3.05 0.0144752 -0.999895 -0.000698729
-4.65 -1.15 0.95 0.00707199 -0.999399 0.0339277
-5.35 -0.85 1.45 -0.0900799 -0.993821 -0.064846
-4.75 -0.85 0.85 -0.0960786 -0.990733 -0.096006
-4.85 -1.05 2.95 -0.000682818 0.996214 0.0869333
-5.15 -0.95 2.85 -0.00551412 -0.999956 0.0075772
-5.45 -1.15 2.45 -0.052777 -0.998366 0.0218911
-5.45 -0.65 1.15 -0.438299 -0.882073 0.172746
-5.45 -1.05 2.15 -0.00931908 0.99886 0.0468254
-5.55 -0.55 1.45 0.468578 0.671463 0.574084
-5.45 -0.85 1.45 -0.0897421 -0.992292 -0.0854551
-5.45 -0.95 1.15 -0.15714 -0.986111 0.0537693
-5.35 -0.85 0.95 -0.16885 -0.9847 -0.0430671
-5.55 -1.05 2.05 -0.0409709 -0.996289 -0.075698
-3.95 -0.95 2.85 -0.39247 0.918503 -0.048156
-4.95 -0.95 1.05 0.0560153 -0.980834 -0.186622
-5.55 -1.05 1.65 -0.0362891 -0.999288 0.0103359
-5.65 -0.95 2.25 -0.0543284 -0.996489 -0.0637041
-5.65 -0.95 2.65 -0.021637 -0.991 0.132098
-5.55 -1.05 1.85 -0.134989 -0.984393 -0.112911
-5.55 -1.05 1.05 0.0169508 -0.999359 -0.0315335
-5.65 -0.95 1.25 0.00317285 -0.994269 0.106859
-5.35 -0.95 2.75 -0.0105543 -0.999591 0.0265967
-5.55 -0.95 1.95 -0.0849468 -0.995588 -0.039851
-4.95 -0.95 2.95 -0.011288 -0.998632 -0.0510539
-5.45 -0.85 0.95 -0.0661875 0.985399 -0.156867
-5.65 -0.95 1.05 0.0325007 0.99925 -0.0210693
-5.75 -0.95 2.65 -0.415781 -0.877951 0.237335
-4.95 -0.95 2.65 -0.026562 -0.999231 0.0288578
-5.15 -0.95 0.85 -0.0443695 -0.990967 -0.126552
-5.75 -0.95 1.55 -0.107516 -0.994014 -0.019401
-4.35 -0.95 2.25 0.112062 -0.992363 0.0515583
-5.75 -1.05 2.05 -0.0664065 -0.997632 -0.0179044
-4.85 -0.95 0.95 -0.0462504 -0.990828 -0.126969
-5.75 -0.95 2.35 -0.13484 -0.989392 0.0540587
-5.75 -0.95 1.85 -0.167865 -0.982176 -0.0845652
-5.85 -0.95 1.25 0.435049 0.899408 -0.0423936
-5.85 -0.95 1.45 -0.390205 -0.919199 0.0530505
-5.85 -1.05 2.45 0.129837 -0.98764 -0.0878069
-5.65 -0.95 2.45 0.0405753 0.99873 0.0298807
-5.05 -0.95 2.25 0.00977594 -0.999946 -0.00348655
-5.85 -0.95 2.25 0.191803 0.979675 0.0587321
-5.25 -0.95 0.85 0.0128737 -0.999915 0.0020801
-5.95 -0.95 2.15 0.145283 0.989207 -0.0190498
-5.85 -1.05 1.05 -0.20665 -0.977786 -0.0350741
-5.95 -0.95 2.45 0.957442 0.27714 0.0806095
-4.65 -0.95 2.75 -0.0293558 -0.999555 -0.005358
-5.35 -0.95 1.65 0.0227685 0.983788 0.177882
-4.95 -0.95 1.35 0.00195459 -0.99996 0.00873847
-5.55 -0.95 1.45 -0.0167893 -0.998492 -0.0522601
-4.35 -0.95 1.25 0.048238 -0.998622 0.0206517
-4.95 -0.85 0.75 -0.0189683 -0.999738 0.0128141
-5.75 -0.95 1.35 -0.117501 -0.990802 0.0671193
-6.45 0.15 2.15 -0.155089 0.984253 -0.0848172
-6.85 0.35 1.95 0.148123 -0.988373 -0.0343202
-5.25 -0.95 1.45 -0.111149 -0.993757 -0.00967447
-6.65 0.35 2.45 0.219139 -0.975687 0.00353539
-5.55 -0.95 0.95 0.00633531 0.994915 -0.100516
-4.85 -1.05 1.25 0.0731122 -0.997311 -0.00509041
-6.85 -0.05 2.35 -0.0495952 -0.997243 -0.0551972
-5.45 -0.95 1.45 -0.00883473 -0.999855 -0.0145427
-5.35 -0.95 1.25 0.0684467 0.997113 -0.0328706
-5.75 -1.05 0.95 -0.196785 -0.97608 -0.0924333
-6.95 -0.05 2.55 -0.0260255 -0.996533 0.0790292
-5.35 -1.05 2.55 0.0659933 -0.995429 0.0690355
-5.85 -0.95 2.95 0.702909 0.70599 -0.0865877
-4.45 -1.05 0.95 0.0578507 -0.998273 -0.0102603
-5.75 -0.95 1.15 -0.246988 -0.968586 0.0289561
-5.35 -0.95 2.75 -0.0105543 -0.999591 0.0265967
-5.55 -1.05 2.75 0.000265389 -0.993314 0.115443
-4.15 -0.95 1.65 0.164754 -0.985351 -0.0440381
-4.15 -0.95 1.15 0.183273 -0.98275 0.0247503
-4.15 -0.95 1.95 0.231207 -0.972869 0.00828622
-4.15 -0.95 2.45 0.0969298 -0.994624 -0.0364473
-4.15 -0.95 2.25 0.127742 -0.991746 0.0110721
-5.45 -1.05 0.85 0.0387184 -0.998224 0.0452658
-4.05 -0.95 2.85 -0.130676 0.990148 0.0503109
-5.85 -1.15 2.55 -0.0590542 -0.99814 -0.0151483
-5.65 -0.95 1.95 -0.0729904 -0.995785 -0.0555374
-5.95 -0.95 0.95 -0.641567 -0.766519 -0.0289776
-5.95 -0.95 1.65 0.69753 0.713189 -0.069382
-5.95 -1.05 1.85 -0.142003 -0.984514 -0.102802
-6.65 -0.05 1.75 0.152503 0.986844 -0.0536858
-7.05 0.75 3.15 -0.631179 -0.0616069 -0.773187
-6.75 0.05 2.15 0.219245 -0.975222 0.0295522
-4.25 -0.95 1.45 0.110015 -0.993668 -0.022814
-3.95 -0.95 1.55 -0.119815 0.992081 0.0376896
-4.05 -0.95 1.25 0.259561 -0.964519 -0.0482861
-4.35 -0.95 0.75 0.0401889 -0.99889 -0.0245826
-3.95 -0.95 1.15 0.211536 -0.975068 0.0670446
-4.15 -1.05 0.85 0.0937959 -0.995363 0.0213064
-4.65 -0.95 0.75 -0.0341479 -0.992942 -0.113582
-5.45 -1.05 1.05 0.00787174 -0.998364 -0.0566335
-3.95 -0.95 2.45 0.0960597 -0.994484 -0.0421302
-4.85 -1.05 0.95 -0.117348 -0.982015 -0.147908
-4.05 -1.05 0.65 0.0873452 -0.995391 0.0395883
-5.15 -0.95 0.75 -0.0230517 -0.999701 0.00819486
-4.45 -1.05 1.55 0.0664676 -0.997328 -0.0303116
-5.55 -1.05 2.05 -0.0409709 -0.996289 -0.075698
-4.35 -0.95 2.05 0.0617104 -0.997573 -0.0322578
-6.45 -0.05 2.65 0.364879 0.282761 -0.887079
-4.35 -0.95 0.95 0.0326358 -0.999252 -0.0207233
-4.25 -0.95 0.55 0.0311855 -0.996641 0.0757266
-4.45 -0.95 0.65 0.0285151 -0.997843 0.0591301
-4.95 -1.05 1.95 0.0080933 -0.999875 0.0135652
-5.35 -1.05 2.45 -0.0873491 0.993438 -0.0738306
-5.45 -0.95 1.75 -0.0977132 -0.989605 -0.105523
-4.55 -0.95 1.25 0.0307382 -0.999437 -0.0134415
-4.35 -0.95 0.45 0.00982362 -0.996524 0.0827298
-4.85 -0.95 0.65 -0.0155246 -0.995599 0.0924225
-4.55 -0.95 1.05 -0.052789 0.998592 -0.00527376
-5.95 -0.95 1.35 -0.676334 -0.724853 0.130996
-3.95 -0.95 0.35 0.60447 -0.795277 -0.0463669
-4.65 -0.95 0.55 0.0112025 -0.993141 0.116389
-3.95 -0.95 1.95 -0.268836 0.961495 -0.0570546
-4.25 -0.95 1.35 0.107321 -0.994164 0.0109496
-5.05 -1.05 2.85 0.0063146 0.997448 0.0711131
-5.65 -0.95 1.75 -0.0928228 -0.992074 -0.0846958
-4.15 -0.95 2.65 -0.0964887 0.992131 0.0797842
-5.35 -0.95 2.15 0.0178686 -0.999566 -0.0234112
-3.85 -0.95 0.75 0.777603 -0.622182 0.0906853
-4.25 -0.95 2.55 0.0653186 -0.996318 -0.055536
-4.05 -0.95 1.45 -0.192973 0.980074 0.047067
-4.85 -1.05 1.65 -0.0759545 0.996764 -0.0263257
-4.25 -0.95 1.05 0.0657524 -0.997463 0.0272914
-5.15 -1.05 2.85 -0.0432351 0.998626 0.0295978
-3.95 -0.95 2.15 -0.221814 0.97291 0.0651579
-4.95 -1.05 1.05 0.00944228 -0.997819 -0.0653308
-4.25 -0.95 1.65 0.0556841 -0.995566 -0.0758135
-4.05 -1.05 1.05 0.15778 -0.985308 0.0653739
-4.65 -1.05 0.95 0.00707199 -0.999399 0.0339277
-4.35 -1.05 2.85 0.00268018 0.997742 0.067109
-4.25 -1.05 1.85 0.108408 -0.993365 0.0383986
-4.05 -0.95 2.05 0.195342 -0.98041 0.0252517
-4.05 -0.95 1.75 0.154754 -0.987697 -0.0224806
-5.15 -0.95 0.95 -0.0255367 -0.977195 -0.210801
-4.25 -0.95 2.35 0.0530331 -0.998509 -0.0129496
-4.25 -0.95 0.85 0.0893328 -0.995971 0.00779917
-4.05 -0.95 2.35 0.0941574 -0.994266 -0.0506984
-4.05 -0.95 2.85 -0.130676 0.990148 0.0503109
-4.25 -0.95 2.15 0.114995 -0.99278 0.03412
-4.25 -0.95 2.85 0.108672 -0.992909 -0.0481854
-3.95 -0.95 0.85 -0.236007 0.965849 -0.106938
-4.15 -0.95 1.55 0.202862 -0.976858 -0.0677937
-3.05 1.15 -0.35 0.305455 -0.0650593 0.949981
-4.05 -0.95 2.55 0.0913353 -0.993982 -0.0604805
-3.95 0.95 1.45 0.998932 -0.0232487 0.0399385
-5.15 -1.05 0.75 -0.00353731 -0.999992 -0.00180011
-4.65 -0.95 0.75 -0.0341479 -0.992942 -0.113582
-3.95 -0.85 1.05 -0.647197 0.758297 -0.0782423
-5.15 -0.95 1.95 0.0366718 -0.999246 0.0127399
-3.95 0.95 2.45 0.99894 -0.0310529 -0.0339682
-3.95 -0.95 1.65 0.23689 -0.968434 -0.0775753
-3.95 -0.35 1.35 0.998855 -0.0343931 -0.0332504
-3.95 -0.85 1.35 -0.330281 0.940154 0.0838113
-3.95 -0.95 2.15 -0.221814 0.97291 0.0651579
-3.95 -0.95 2.55 0.129975 -0.989592 -0.061759
-3.85 0.35 0.25 0.995574 -0.0151186 0.0927594
-2.25 0.65 -0.15 0.157652 0.0109752 0.987434
-3.95 -0.95 2.25 -0.168708 0.985425 0.0218179
-3.95 -0.45 1.75 0.998446 -0.055625 -0.00348995
-3.95 0.75 0.85 0.999393 -0.0187556 0.0293535
-3.95 -0.95 2.45 0.0960597 -0.994484 -0.0421302
-3.95 -0.95 0.65 0.597741 -0.791885 0.124998
-3.95 -0.45 1.05 0.99509 -0.0578118 0.0803373
-4.95 -1.05 0.45 0.00559007 -0.987099 0.16001
-4.35 -0.95 0.65 0.0146987 -0.997654 0.0668676
-3.95 -0.55 0.55 0.987915 -0.12414 0.0928041
-3.95 -0.65 0.75 0.857362 -0.480745 0.183888
-3.95 -0.05 3.05 0.998645 0.0461345 -0.0240645
-3.85 0.15 -0.15 0.994725 -0.0123202 0.101838
-3.95 0.45 2.95 0.999537 -0.0154679 -0.0262124
-3.95 0.85 3.65 0.999305 -0.00891832 -0.0361889
-3.95 0.95 2.85 0.999266 -0.0270604 -0.0271137
-3.95 -0.65 1.95 0.969331 -0.230398 -0.0855258
-5.25 -1.05 1.85 0.087883 -0.996026 -0.0144189
-3.85 0.85 1.85 0.999248 -0.0267874 0.0280414
-4.45 -1.05 0.45 0.0411912 -0.997335 0.0602214
-3.95 0.35 1.25 0.997846 -0.0652293 0.00702383
-3.95 0.15 0.65 0.999299 -0.00372333 0.0372578
-3.85 -0.65 0.25 0.944118 -0.319567 -0.0807356
-3.95 -0.55 2.65 0.963321 -0.230571 0.137291
-3.95 -0.25 3.25 0.999799 0.0200378 0.00112108
-4.65 -1.05 2.85 0.0282253 0.999224 0.0274547
-4.95 -1.05 0.05 -0.0415796 -0.993685 0.104218
-3.95 0.05 2.25 0.998987 0.0449861 -0.00108636
-3.85 0.85 0.55 0.987667 -0.146062 0.0563875
-5.55 -1.05 1.45 0.0210072 -0.992925 -0.116869
-3.95 -0.05 1.55 0.999754 0.018221 0.0126767
-4.25 -1.05 0.25 0.041646 -0.993269 0.108085
-3.85 -0.85 1.65 0.932113 -0.359561 -0.0433707
-5.65 -1.05 2.05 -0.129836 -0.989572 -0.0623726
-5.25 -1.05 0.05 -0.0629579 -0.995418 0.0719693
-3.95 0.15 2.05 0.99969 0.0127286 0.0213832
-3.95 -0.75 2.95 0.836778 -0.537409 0.104852
-3.85 -0.55 2.15 0.998695 -0.0500912 0.0099897
-3.95 -0.45 2.55 0.998102 -0.0387232 -0.0478829
-5.85 -0.95 0.95 -0.282006 -0.948151 -0.146569
-5.05 -1.05 0.65 -0.0179647 -0.996775 0.0782087
-3.85 -0.85 2.35 0.352231 -0.933501 -0.0671524
-5.95 -0.95 0.35 -0.439631 -0.89683 -0.0491921
-3.85 -0.35 -0.15 0.99711 -0.0506886 0.0565938
-3.95 0.05 0.15 0.990871 0.0155207 0.133918
-4.15 -0.95 0.15 0.343286 -0.934452 -0.0946313
-5.85 -1.05 3.15 0.635834 0.759842 0.135483
-4.95 -0.95 3.05 -0.0186881 -0.998663 -0.0482023
-4.35 -0.95 2.95 0.0283167 -0.996426 -0.0795819
-3.85 -0.75 0.05 0.884502 -0.444973 -0.140198
-3.95 -1.05 2.85 -0.206118 0.978091 -0.0292168
-3.95 0.05 2.55 0.99895 0.0361147 -0.0282059
-3.45 1.65 -0.15 -0.442053 -0.0541479 -0.895353
-3.85 0.95 -0.25 0.918428 -0.189505 0.347244
-4.95 -1.05 0.35 -0.0877059 -0.989335 0.11629
-4.45 -1.05 -0.05 -0.179927 0.983176 0.0314857
-3.95 -0.55 3.25 0.992063 -0.119208 0.0399927
-3.95 -0.95 2.15 -0.221814 0.97291 0.0651579
-5.95 -0.95 -0.05 -0.507763 -0.858043 -0.0770635
-3.95 -0.15 1.15 0.999009 0.0328345 0.030053
-4.55 -1.05 0.65 0.0316996 -0.999076 0.0290191
-3.85 -0.55 0.55 0.994862 -0.0847577 0.0553665
-4.65 -0.95 3.15 0.0193656 -0.999803 0.00435015
-3.95 0.75 2.15 0.998525 -0.0477219 -0.0258945
-5.25 -0.95 3.45 0.00667077 -0.999817 -0.0179113
-3.95 -0.95 1.85 -0.281239 0.95956 -0.0121975
-4.45 -0.95 0.45 0.0492597 -0.996035 0.0740848
-3.95 -0.95 2.55 0.129975 -0.989592 -0.061759
-3.95 -0.95 3.05 0.500702 -0.852759 0.14866
-5.75 -1.05 1.45 -0.135266 -0.990327 0.0309207
-4.05 -0.95 1.65 -0.153808 0.982282 0.107078
-3.95 -0.95 0.45 0.648479 -0.761119 0.0131465
-3.95 0.45 3.35 0.999681 -0.0135865 -0.021301
-4.75 -0.95 1.55 0.0546924 -0.998469 -0.00831433
-4.65 -1.45 0.35 -0.0281471 -0.990054 0.137847
-5.85 -1.05 3.65 -0.17177 -0.984796 0.0259086
-4.35 -0.95 3.15 0.113765 -0.99018 0.0812519
-4.25 -0.95 1.95 0.0967464 -0.995288 -0.00646364
-4.15 -0.95 1.35 0.128333 -0.989986 0.0588035
-3.85 -0.85 1.95 0.795593 -0.605554 -0.0183179
-4.85 -1.05 1.95 0.0162708 -0.999866 -0.00150315
-3.95 -0.35 1.95 0.999309 0.0141715 0.0343733
-3.85 0.55 -0.15 0.912035 -0.155457 0.379506
-7.35 -0.85 4.05 -0.32569 -0.578209 -0.748064
-3.95 -0.15 0.55 0.99605 0.0500098 0.073378
-3.85 0.05 3.55 0.999798 0.0199832 0.00205197
-7.45 -0.75 3.55 -0.44748 -0.683953 -0.576168
-5.25 -1.05 3.65 -0.0289486 0.997289 -0.0676517
-4.45 -0.95 0.95 0.0208333 -0.999782 0.00136116
-4.15 -0.95 0.55 0.0776044 -0.993379 0.0847042
-3.95 0.95 3.35 0.998948 -0.0339411 -0.0308367
-5.95 -1.05 2.65 0.818884 0.538572 -0.198416
-4.65 -0.95 3.45 -0.0254575 -0.998458 0.0493349
-4.65 -1.05 -0.05 0.000118024 -0.998857 0.0477964
-3.65 1.55 0.05 0.946476 -0.268322 0.179407
-5.45 -0.95 0.75 0.0446459 -0.998381 0.0352322
-3.95 -1.05 3.35 -0.612642 0.789298 0.0409772
-3.85 -0.75 3.15 0.955775 -0.289294 -0.0529509
-4.35 -0.95 3.45 0.0823378 -0.996591 0.00526802
-5.75 -1.05 2.35 -0.116187 -0.993087 0.0167092
-4.75 -1.05 3.55 0.0078524 -0.999951 0.00610966
-4.35 -0.95 1.25 0.048238 -0.998622 0.0206517
-5.25 -1.05 1.05 -0.0826985 -0.995162 -0.053042
-3.85 -0.55 2.75 0.989014 -0.141384 0.0431397
-3.85 0.95 0.25 0.950681 -0.253843 0.178241
-3.85 -0.45 3.65 0.9902 -0.0710238 0.12025
-3.85 -0.95 2.55 -0.278965 0.960117 -0.0188034
-3.95 -0.95 0.95 -0.308395 0.948881 -0.0672116
-4.05 -1.05 3.65 0.345375 -0.937566 0.0410613
-3.95 -0.85 3.65 0.64639 -0.713212 -0.271125
-4.85 -0.95 0.85 -0.0292198 -0.996382 -0.0798083
-3.95 -0.05 3.65 0.996767 -0.0230488 0.0769716
-3.95 -0.45 0.85 0.989261 -0.0767661 0.12438
-3.85 0.95 1.15 0.999717 -0.0155735 0.0179608
-3.95 -0.05 2.65 0.998223 0.0564254 -0.0191449
-3.95 -1.05 3.05 -0.347282 0.935663 -0.0626863
-5.95 -1.15 3.55 -0.161358 -0.985747 0.0475977
-3.95 -0.75 3.25 0.917425 -0.392916 -0.0628371
-3.85 0.45 0.15 0.973343 -0.123307 0.19339
-3.85 -0.55 0.65 0.992232 -0.118065 0.0391968
-4.75 -1.05 0.75 -0.0064694 -0.999028 -0.0436057
-3.85 -0.85 0.75 0.888058 -0.426357 0.171967
-3.85 -0.05 3.65 0.99802 -0.0119557 0.061745
-3.85 0.95 2.85 0.999266 -0.0270604 -0.0271137
-4.55 -1.05 0.35 0.0563515 -0.992597 0.107587
-3.85 -0.25 0.25 0.99381 0.0326385 0.106193
-6.15 -0.95 -0.15 -0.647573 -0.754361 -0.107647
-3.85 -0.95 0.35 0.788001 -0.615436 -0.0171046
-3.95 0.95 3.25 0.998948 -0.0339411 -0.0308367
-3.95 0.25 3.25 0.999798 -0.00368174 -0.0197495
-3.95 0.45 2.45 0.998917 -0.0312619 -0.0344478
-5.45 -1.15 -0.35 0.190654 0.981636 -0.00642032
-3.15 1.05 -0.25 -0.324958 -0.0430448 -0.944748
-3.95 -0.55 3.35 0.988857 -0.13628 0.0599206
-3.75 0.85 -0.15 0.918428 -0.189505 0.347244
-3.65 1.65 0.05 0.871423 -0.329932 0.362996
-3.85 -0.85 1.45 -0.457641 0.888906 0.0202736
-3.95 -0.05 3.65 0.996767 -0.0230488 0.0769716
-3.95 -1.05 -0.15 -0.143038 0.807595 0.572129
-3.95 -0.25 3.25 0.999799 0.0200378 0.00112108
-3.95 -0.85 2.65 0.839797 -0.522735 0.146593
-2.15 0.55 -0.05 -0.145402 -0.0171711 -0.989224
-3.85 -0.15 -0.25 0.997332 -0.0448186 0.0576175
-3.35 -1.25 -0.15 0.373067 0.838522 0.397117
-2.15 0.15 -0.15 0.105883 0.0290463 0.993954
-3.95 -0.65 1.05 0.926622 -0.353282 0.128696
-3.85 -0.65 0.05 0.953989 -0.299833 -0.00209284
-4.35 -1.25 -0.05 -0.194689 0.972707 0.126243
-3.85 0.35 -0.25 0.90127 -0.145352 0.40815
-4.75 -1.05 0.75 -0.0064694 -0.999028 -0.0436057
-3.95 0.25 3.75 0.999993 0.0016021 -0.00343123
-3.95 -0.85 1.85 -0.572409 0.81979 0.0170711
-2.95 -1.15 -0.15 -0.287919 -0.443369 -0.848838
-4.05 0.45 1.65 0.999174 0.00523045 0.0403084
-2.55 -1.25 -0.05 -0.334444 -0.150911 -0.930254
-4.05 -0.05 3.55 0.99985 -0.00566448 0.0163394
-3.85 -0.05 1.15 0.999086 0.0367045 0.0219276
-3.95 0.35 1.25 0.997846 -0.0652293 0.00702383
-3.85 -0.95 0.75 0.777603 -0.622182 0.0906853
-3.85 -0.95 2.55 -0.278965 0.960117 -0.0188034
-3.75 -0.35 -0.15 0.997764 -0.0426168 0.0514858
-3.85 -0.95 1.45 -0.142717 0.988357 0.0527459
-3.85 -0.55 1.75 0.997204 -0.0570886 -0.0482171
-5.25 -1.05 3.65 -0.0289486 0.997289 -0.0676517
-3.95 -0.15 2.25 0.99912 0.0257837 -0.0330801
-3.85 -0.45 3.05 0.993793 -0.0736695 -0.0833569
-4.05 -0.05 0.85 0.999068 0.0304011 0.0306425
-4.05 0.25 0.05 0.988261 -0.021347 0.151274
-4.05 0.15 0.45 0.998483 0.0172893 0.0522694
-4.75 -0.95 0.25 0.0144699 -0.998914 0.0442842
-4.15 0.05 1.85 0.999757 0.00555151 0.0213414
-4.05 0.15 1.35 0.999466 -0.0276851 0.0173524
-3.05 -1.15 -0.15 -0.292244 -0.345561 -0.891729
-3.85 0.35 2.05 0.999853 -0.0100286 0.0139027
-3.85 0.65 1.35 0.998723 -0.0216751 0.0456346
-3.85 0.55 3.55 0.999681 -0.0135865 -0.021301
-3.85 0.25 1.05 0.997635 -0.0334961 0.0600227
-4.05 0.55 2.75 0.999227 -0.0371952 -0.01271
-3.85 0.85 0.95 0.999291 -0.0191662 0.0323986
-3.95 0.05 0.55 0.999336 0.0133872 0.0338764
-3.85 0.55 0.45 0.997458 -0.0643361 0.0306444
-3.95 0.65 0.05 0.962809 -0.133695 0.234785
-4.45 -1.05 0.35 0.0627487 -0.98397 0.166929
-3.95 1.05 2.15 0.99904 -0.0412146 -0.0148556
-3.75 0.85 3.15 0.999458 -0.0285138 -0.0164223
-3.95 -0.85 2.45 0.606057 -0.791108 0.082716
-3.95 0.35 1.65 0.997568 -0.012647 0.0685479
-3.95 0.05 2.55 0.99895 0.0361147 -0.0282059
-4.15 1.15 1.65 0.998781 -0.0404222 0.0283222
-4.05 -0.85 1.45 -0.192973 0.980074 0.047067
-4.05 0.55 0.75 0.99722 -0.0684838 0.0293482
-3.95 0.95 0.25 0.950681 -0.253843 0.178241
-4.05 -0.05 2.15 0.997752 0.0634525 -0.0215532
-4.05 0.05 3.55 0.999689 0.0131827 -0.0211914
-4.05 0.75 2.35 0.99894 -0.0310529 -0.0339682
-4.05 -0.45 1.75 0.994887 -0.0858021 -0.0532729
-3.95 -0.95 3.75 -0.486443 0.866426 0.112601
-3.95 -0.45 0.25 0.993792 -0.103109 0.0417848
-4.25 -1.05 2.95 0.0510154 -0.997786 -0.0426763
-3.95 -0.85 1.55 -0.380137 0.924437 -0.0302088
-4.05 -0.65 -0.05 0.717262 -0.553908 -0.422754
-4.05 -0.85 2.05 0.377055 -0.923265 0.0735603
-4.65 -0.95 -0.25 -0.0836002 0.996355 0.0169857
-3.85 -0.65 3.35 0.956583 -0.290932 0.0175032
-3.85 -0.05 1.45 0.999655 0.00656256 0.0254219
-3.85 -0.05 0.15 0.992139 0.0354874 0.120002
0.25 -6.85 1.25 0.268518 -0.731707 -0.6265
0.25 -8.45 2.35 0.0408339 0.167285 0.985063
0.65 -5.95 1.05 -0.136192 0.93769 0.319671
1.15 -6.05 1.15 -0.349665 -0.865613 -0.358398
1.25 -6.35 1.45 -0.233081 -0.781448 -0.578803
1.65 -6.55 1.55 -0.410414 -0.761825 -0.501182
1.75 -6.35 1.25 -0.418263 -0.725747 -0.546211
0.75 -6.85 1.75 -0.101689 0.259958 0.960251
2.35 -8.25 -0.15 0.545277 0.471328 0.693197
2.15 -8.45 2.35 0.149292 0.953239 -0.26277
2.15 -6.95 0.75 -0.470787 0.246849 -0.84701
2.45 -8.35 1.15 -0.00405301 -0.830278 -0.557334
2.65 -8.35 1.95 -0.0800717 -0.996019 0.039171
0.95 -6.15 0.85 -0.264276 -0.963765 -0.0362818
2.65 -7.55 -0.15 0.275827 -0.083967 -0.957533
2.65 -7.45 0.55 0.356591 -0.930217 -0.0868271
2.85 -8.45 1.45 -0.0473716 -0.973745 -0.22266
2.85 -7.45 0.15 0.238234 -0.970172 -0.0448509
3.25 -8.55 1.85 -0.504535 0.860002 0.0764247
3.05 -7.15 0.85 -0.187051 0.944163 -0.271236
3.45 -7.95 1.45 -0.220024 0.874604 0.432039
2.35 -6.25 -0.15 0.0145929 -0.177452 -0.984021
1.65 -6.75 1.85 0.478552 0.164179 0.862574
3.25 -8.65 2.35 -0.546995 -0.836078 0.0420794
1.75 -6.45 0.95 0.712998 0.675808 0.186863
4.15 -8.55 -0.05 0.570264 -0.813885 -0.11131
0.25 -6.95 -0.05 -0.412837 0.784475 -0.462779
4.25 -8.05 1.15 -0.487222 0.871531 0.0552141
3.65 -7.75 0.85 -0.252245 -0.772843 -0.582311
4.35 -7.95 -0.35 0.210933 -0.154492 -0.965215
1.85 -7.15 0.05 -0.601842 -0.785857 -0.142178
0.75 -6.75 1.45 0.193968 -0.728794 -0.656685
4.25 -7.45 0.65 -0.256063 0.960296 -0.110736
4.25 -8.05 1.65 -0.532359 0.839533 -0.108531
4.75 -7.75 -0.05 0.493727 0.825261 -0.274184
4.55 -7.85 1.55 0.679549 -0.619394 0.393146
2.95 -7.55 0.15 0.188872 -0.980787 -0.0488238
0.95 -7.15 -0.35 0.245471 0.908683 -0.337696
3.35 -7.25 0.15 -0.0383102 -0.997011 0.0670973
4.35 -8.35 0.55 0.373098 -0.924554 0.0774403
0.15 -6.35 1.15 0.556265 -0.734503 -0.388684
1.55 -6.05 0.75 -0.429147 -0.9032 0.0078903
1.45 -6.55 -0.05 -0.036328 -0.787091 0.615766
3.85 -7.75 -0.25 -0.234577 0.0331952 -0.971531
3.35 -7.25 0.55 -0.118401 -0.991105 -0.0607602
3.75 -7.95 1.45 0.423263 -0.814743 -0.396287
1.65 -6.45 1.55 -0.410414 -0.761825 -0.501182
2.65 -7.75 0.95 0.146872 0.415535 0.897641
0.95 -5.95 0.95 -0.124998 -0.98869 -0.0828755
0.55 -6.95 1.55 0.202554 -0.356833 -0.911944
1.25 -6.35 0.45 -0.312236 -0.837854 0.447782
0.95 -6.15 1.35 -0.099815 -0.841592 -0.530811
1.45 -6.05 1.15 -0.325861 -0.884032 -0.335115
3.95 -7.85 0.55 0.573131 0.689778 -0.442411
2.05 -7.05 0.35 -0.689088 -0.720852 -0.0743575
2.05 -6.95 1.05 0.90354 -0.00600446 0.428461
1.45 -6.25 0.15 0.114266 -0.919701 0.375624
3.65 -7.45 -0.15 0.408134 0.907507 -0.0992822
1.35 -6.05 0.85 -0.369484 -0.926849 -0.0665784
1.75 -6.85 0.05 -0.462075 -0.874049 -0.150081
0.85 -6.75 -0.05 -0.142405 -0.773102 0.618089
2.65 -8.35 -0.15 -0.709407 -0.54823 -0.442928
4.35 -7.75 0.75 -0.542911 0.823139 0.1664
4.55 -7.65 1.65 0.958271 0.285178 0.0197615
2.95 -8.45 1.35 -0.19082 -0.889065 -0.416114
1.55 -6.65 1.65 0.395439 0.417831 0.817952
4.65 -7.55 0.95 -0.532829 -0.836394 -0.128604
4.55 -7.95 -0.25 -0.0260524 0.716704 -0.696891
4.35 -7.95 0.25 0.651784 -0.757307 0.0407999
3.05 -8.45 2.35 -0.458628 -0.882188 0.106795
4.65 -7.45 0.55 0.127079 0.98826 -0.0848151
2.65 -7.45 0.55 0.356591 -0.930217 -0.0868271
5.05 -7.85 1.15 -0.591849 -0.803147 -0.0683383
5.35 -8.15 0.65 -0.69594 -0.716708 -0.0447024
5.75 -8.55 1.35 -0.638083 -0.760024 -0.123344
5.05 -7.85 0.25 -0.638162 -0.769828 -0.0106921
1.35 -6.35 1.45 -0.348051 -0.779444 -0.520891
6.05 -8.85 0.85 0.985429 0.109511 -0.130146
4.65 -7.55 1.45 0.585145 0.809655 0.0454414
2.05 -6.95 0.35 0.74992 0.661528 -0.000448698
1.05 -6.05 0.75 0.209286 0.9778 -0.0102963
6.75 -8.65 -0.05 -0.246301 -0.177606 -0.952781
0.65 -6.55 0.05 0.220329 -0.800544 0.5573
3.75 -7.95 0.85 0.202121 0.64362 0.738174
5.95 -8.45 1.85 0.613601 0.782574 0.10522
5.65 -7.95 -0.25 0.056179 0.171857 0.983519
1.55 -6.25 0.95 -0.489304 -0.868856 -0.0753082
1.95 -7.25 1.45 0.834872 -0.21074 0.508504
5.15 -7.75 1.85 0.72413 0.670222 0.162598
5.65 -8.35 0.45 0.750516 0.658429 -0.0565385
3.25 -7.55 0.75 -0.203782 -0.562383 -0.801373
2.45 -5.65 -0.15 -0.0717733 -0.281099 -0.956991
5.15 -8.05 -0.35 -0.34779 -0.466702 -0.813162
2.45 -6.15 -0.05 0.454388 -0.273168 -0.847886
1.55 -6.75 1.65 0.486678 0.252803 0.836203
4.65 -7.55 1.85 -0.623543 -0.773057 0.116521
2.35 -5.35 -0.15 0.169753 0.307516 0.936279
2.35 -5.05 -0.05 0.289377 0.402632 0.868417
2.05 -6.65 1.25 0.815765 0.228163 0.531478
1.85 -6.25 0.85 0.605551 0.794185 -0.0507814
0.95 -6.55 1.25 -0.190954 -0.767582 -0.611845
4.65 -7.45 1.35 0.555525 0.830994 0.0289957
4.85 -7.65 0.75 0.678752 0.723594 0.125329
1.35 -6.75 1.85 0.212867 0.319393 0.923405
4.65 -7.55 0.15 -0.49545 -0.868584 0.0095324
3.75 -7.55 -0.25 0.0194986 0.553315 -0.832744
0.45 -6.35 0.75 0.55477 -0.821813 0.129817
6.05 -7.85 -0.05 -0.0727191 -0.0836734 -0.993836
1.05 -6.65 1.75 0.00838709 0.465354 0.885085
2.05 -5.25 -0.35 0.181414 0.220418 0.958387
1.85 -6.85 1.65 0.644533 0.0791023 0.760474
1.55 -6.75 1.65 0.486678 0.252803 0.836203
0.75 -6.05 0.85 0.116829 -0.993152 -0.000968537
4.65 -7.65 0.25 -0.319615 -0.914937 0.24645
0.95 -6.65 0.55 -0.252026 -0.897767 0.361245
4.85 -7.85 -0.25 -0.450542 -0.792923 0.410225
3.65 -7.45 0.45 -0.389117 -0.89437 -0.220659
4.65 -7.55 0.25 -0.512969 -0.852276 0.102412
1.45 -6.45 0.25 -0.356807 -0.805952 0.472366
1.75 -6.85 0.65 0.75083 0.630185 -0.197793
6.25 -8.15 -0.15 0.133565 0.0677892 0.988719
0.75 -6.35 1.65 -0.202976 0.613496 0.763167
2.35 -7.05 -0.35 -0.00131188 -0.160441 -0.987045
1.45 -6.55 0.85 0.711083 0.700883 -0.0558852
3.75 -7.65 0.45 -0.477616 -0.740895 -0.472184
4.65 -7.55 1.85 -0.623543 -0.773057 0.116521
5.55 -8.45 0.95 0.730289 0.673611 0.113697
3.15 -7.45 0.45 0.018574 -0.999197 -0.0355127
4.15 -7.55 -0.15 0.155908 0.428827 -0.889832
1.45 -7.35 1.55 -0.627278 0.145662 -0.765052
5.25 -8.05 0.75 0.729101 0.682356 0.0529411
1.35 -6.95 -0.15 0.245471 0.908683 -0.337696
5.05 -7.95 1.55 0.605036 0.794294 0.0550215
0.55 -6.55 1.65 -0.275191 0.631358 0.725022
6.05 -9.05 -0.35 0.7128 -0.0668937 0.69817
4.15 -7.95 1.15 -0.430881 0.822142 0.372054
5.35 -8.25 1.45 -0.696275 -0.717336 -0.0251047
4.25 -8.05 1.55 -0.583762 0.81151 -0.0259303
5.15 -8.15 -0.35 0.417852 0.81587 0.399695
1.35 -6.25 0.15 0.0684129 -0.888034 0.45466
2.15 -7.45 2.25 0.565694 -0.127303 -0.81473
5.55 -8.35 -0.05 0.665239 0.745968 0.031443
1.95 -7.45 0.25 0.646582 0.672198 0.360669
1.85 -6.35 0.95 0.655768 0.707132 0.264447
1.95 -7.55 0.75 0.531347 0.787728 0.311697
2.05 -6.95 0.85 0.972466 -0.12887 0.194171
4.15 -7.95 1.15 -0.430881 0.822142 0.372054
1.75 -8.25 1.85 0.0636683 0.9894 -0.130516
6.15 -8.85 0.15 0.997966 0.0226183 -0.0596084
3.65 -8.45 0.85 -0.345224 0.938498 0.0064614
2.15 -6.85 1.25 0.634753 0.138496 0.760203
1.75 -6.65 1.45 0.670728 0.545557 0.502485
3.65 -7.35 0.55 0.206324 0.925294 0.318216
4.75 -7.45 1.05 -0.666962 -0.745071 0.00552714
3.15 -8.35 2.35 -0.197804 -0.964224 -0.176483
3.05 -8.45 1.45 -0.0245176 0.98694 0.159211
3.25 -8.15 1.05 0.121122 0.51202 0.850391
2.85 -7.55 0.95 -0.148155 -0.593674 -0.79095
1.95 -8.15 2.35 0.140864 0.988945 -0.0463124
3.75 -8.35 0.35 0.851352 -0.458682 0.254579
2.45 -7.65 0.15 -0.285495 -0.958296 -0.0126963
5.25 -7.95 0.45 -0.632747 -0.770295 -0.0792301
3.75 -7.45 0.85 0.13267 0.68351 0.717783
6.05 -8.75 0.55 0.900932 0.43013 0.0575326
2.35 -8.45 2.45 0.260758 0.91728 -0.301004
4.45 -7.65 0.45 0.655752 -0.747647 0.104949
5.95 -8.55 -0.05 0.766323 0.552201 0.328365
4.95 -7.75 0.25 0.662179 0.742767 -0.0990707
2.15 -8.35 2.05 0.198952 0.968007 -0.152905
2.65 -7.25 0.95 -0.214569 0.0948622 -0.972091
1.35 -8.45 1.45 0.220406 -0.90005 -0.375939
4.95 -7.75 0.95 -0.664072 -0.745984 -0.0501595
1.85 -7.65 1.05 0.731871 -0.130148 0.668899
3.35 -8.65 1.85 0.80438 0.480781 0.349032
2.65 -8.35 1.55 -0.0422898 -0.990997 -0.127033
4.85 -7.75 1.35 -0.626913 -0.774872 0.0809585
3.05 -7.35 0.75 -0.161512 0.964112 0.21072
1.95 -8.45 1.55 0.0755371 0.991848 0.102619
0.85 -8.45 1.85 0.118584 0.90234 0.414391
4.75 -7.55 1.65 0.897671 0.412781 0.154266
2.75 -8.35 0.75 -0.0335378 0.647737 0.761125
5.05 -7.85 0.45 -0.681198 -0.731719 -0.0235927
1.85 -8.45 0.95 -0.00570162 -0.696303 -0.717725
4.85 -7.55 0.55 -0.70498 -0.705037 -0.0769885
2.55 -7.05 2.15 -0.394369 -0.735715 -0.550633
5.15 -7.85 1.85 0.705475 0.683773 0.18644
6.05 -8.75 1.65 0.80494 0.593316 -0.0068615
3.45 -7.35 0.55 -0.288695 -0.941946 -0.171442
5.85 -8.55 0.85 -0.642725 -0.762847 -0.0704854
2.75 -8.35 2.35 0.093903 0.988999 -0.114291
3.05 -8.35 1.95 0.0844021 -0.994454 0.0627558
5.55 -8.25 1.65 -0.667743 -0.744245 0.0148074
4.35 -7.75 0.95 0.598494 -0.766663 -0.23245
0.35 -8.35 2.35 0.0408339 0.167285 0.985063
3.55 -8.05 0.75 0.677846 0.323468 0.660223
3.35 -8.75 1.05 -0.189247 0.931565 0.310438
4.65 -7.45 0.75 -0.335517 -0.941915 -0.015011
4.65 -7.45 1.65 0.793289 0.605212 -0.0664162
4.05 -8.05 0.05 -0.550908 0.305774 0.776532
5.45 -8.15 0.25 0.702948 0.705056 -0.0935885
5.25 -8.05 0.55 -0.661958 -0.746203 -0.0706614
5.15 -7.85 1.35 0.766954 0.637539 -0.0729762
5.55 -8.35 1.25 -0.550458 -0.834859 -0.00236846
4.85 -7.65 1.15 -0.656311 -0.75445 0.00776756
3.65 -7.35 0.65 0.206324 0.925294 0.318216
3.55 -7.35 0.45 0.228476 0.917267 0.32622
5.35 -8.15 0.95 -0.697515 -0.714715 -0.051521
0.85 -8.55 1.15 -0.60355 -0.0572314 -0.795268
-0.85 -9.05 1.85 0.19054 0.13722 0.972042
4.65 -7.55 0.45 -0.424969 -0.897436 0.118364
5.75 -8.55 0.05 0.732197 0.680263 0.0336017
2.75 -7.35 0.25 0.197385 -0.979193 -0.0471098
4.95 -7.75 0.25 0.662179 0.742767 -0.0990707
1.55 -8.45 1.35 -0.0352705 0.970845 0.237098
3.05 -7.45 0.15 0.165091 -0.985213 -0.0458336
3.45 -8.55 -0.45 -0.0392033 0.0103706 -0.999177
6.95 -8.85 -0.15 0.112391 0.0220342 0.99342
5.35 -8.05 0.05 0.748584 0.580266 0.3208
4.65 -7.45 0.35 -0.235564 -0.945247 0.22587
4.05 -8.05 -0.15 -0.0701261 0.17958 0.981241
2.75 -7.75 0.85 0.564231 -0.609579 -0.556827
3.65 -7.35 0.25 0.236947 0.971439 0.0127512
3.35 -7.35 0.35 -0.080013 -0.987732 -0.134103
6.05 -8.75 -0.05 0.958243 0.19834 -0.20599
2.05 -7.25 0.95 0.777692 -0.317483 0.542586
5.75 -8.55 1.85 0.763289 0.602804 -0.232417
4.75 -7.65 0.45 0.633157 0.767812 -0.0978611
3.65 -7.45 0.55 -0.420439 -0.822165 -0.383766
2.65 -7.45 -0.15 -0.149803 0.821914 0.54956
4.75 -7.55 1.55 0.173824 0.961014 -0.215029
4.65 -7.45 0.75 -0.335517 -0.941915 -0.015011
4.35 -7.75 -0.15 -0.194881 0.86004 -0.471542
3.25 -7.25 0.05 -0.00648008 -0.993322 0.115196
0.35 -8.25 2.45 -0.0109447 0.196483 0.980446
5.25 -7.95 0.95 0.723022 0.689602 0.0410845
1.05 -7.05 1.85 0.0425455 0.0863396 0.995357
5.15 -7.75 1.45 0.780899 0.621172 -0.0658948
4.55 -7.45 1.15 -0.317899 -0.943447 -0.0940629
1.85 -7.05 0.95 0.966506 0.0218918 0.255707
5.45 -8.35 1.15 -0.601277 -0.778026 -0.182049
1.35 -6.75 1.55 0.253796 0.298342 0.920098
1.35 -6.55 1.35 -0.329752 -0.842525 -0.425929
2.05 -8.45 1.45 -0.169177 -0.984187 -0.0524847
5.25 -8.05 0.45 -0.67224 -0.733534 -0.100105
4.85 -7.65 1.15 -0.656311 -0.75445 0.00776756
1.05 -6.55 1.75 -0.0194304 0.540287 0.841257
2.05 -7.25 0.95 0.777692 -0.317483 0.542586
2.15 -6.55 1.35 0.754495 0.289909 0.588805
2.05 -7.15 1.25 0.79874 -0.304515 0.518927
3.35 -7.45 0.45 -0.0809275 -0.99436 -0.0685425
1.55 -7.25 1.75 -0.384123 -0.120196 -0.915425
3.05 -7.35 0.55 0.0942416 -0.994631 -0.0427562
0.95 -8.35 1.85 0.118584 0.90234 0.414391
5.75 -8.45 1.35 -0.628295 -0.776289 -0.0512001
1.55 -8.35 1.65 -0.116475 0.955344 0.271573
5.55 -8.25 1.55 -0.663171 -0.744618 0.0758176
6.05 -8.75 1.15 0.847917 0.527808 -0.0495588
6.05 -8.85 0.25 0.994884 0.0888036 -0.0481646
5.75 -8.45 0.55 -0.704817 -0.706963 0.0586207
5.75 -8.55 0.05 0.732197 0.680263 0.0336017
2.75 -7.75 0.85 0.564231 -0.609579 -0.556827
5.75 -8.55 0.95 0.724316 0.689035 0.0244459
5.55 -8.35 0.75 -0.689978 -0.723689 -0.0143056
6.05 -8.85 0.75 0.979122 0.200598 -0.0328821
1.95 -8.35 1.95 0.0613138 0.994673 -0.0828599
2.65 -8.35 2.35 0.093903 0.988999 -0.114291
3.05 -8.35 1.85 -0.197538 0.980234 -0.0109321
4.65 -7.45 0.75 -0.335517 -0.941915 -0.015011
6.85 -8.85 -0.05 -0.246734 -0.0110597 -0.96902
3.65 -8.35 -0.25 0.134049 -0.0492503 0.98975
1.85 -8.45 2.35 0.0337412 0.9993 -0.0161357
2.55 -8.45 1.55 -0.0494506 -0.997609 -0.048275
4.15 -7.95 -0.15 0.183774 -0.127626 -0.974648
3.15 -8.45 1.05 -0.0384968 -0.781629 -0.622554
1.05 -8.45 1.95 0.0522083 -0.988492 -0.141981
2.95 -7.35 0.15 0.203362 -0.978841 -0.0226901
5.55 -8.35 1.15 0.613415 0.775563 0.149073
6.05 -8.85 1.55 0.971675 0.194621 -0.134057
6.15 -8.85 -0.15 0.979971 0.0523997 -0.192123
3.65 -7.95 0.85 -0.56688 -0.564555 -0.599938
1.15 -8.35 1.25 0.670448 -0.074692 0.738188
5.65 -8.45 1.85 0.734256 0.656996 -0.170951
2.65 -8.45 1.55 -0.0279268 -0.998581 -0.0453447
4.65 -7.45 0.75 -0.335517 -0.941915 -0.015011
3.05 -7.45 0.75 -0.161512 0.964112 0.21072
2.05 -8.45 0.95 0.0991831 0.768129 0.632566
4.75 -7.65 0.25 -0.481269 -0.849148 0.217549
3.35 -7.45 0.75 0.276259 0.832552 0.480144
2.65 -7.45 0.25 0.161351 -0.978363 -0.129506
3.55 -7.45 0.25 0.253835 0.966568 0.0362355
1.35 -8.55 0.75 0.729324 0.0745871 0.680091
4.65 -7.55 1.15 -0.664943 -0.746824 -0.0102661
4.65 -7.45 1.85 0.726053 0.687135 -0.0263028
4.55 -7.55 0.15 0.227681 0.960663 -0.159022
5.65 -8.45 1.85 0.734256 0.656996 -0.170951
0.95 -8.45 1.95 0.118584 0.90234 0.414391
4.95 -7.75 -0.05 -0.631238 -0.774282 0.0450116
6.55 -8.55 -0.05 -0.175067 -0.226346 -0.958185
3.35 -9.35 2.35 -0.356579 -0.114894 -0.927174
4.75 -7.55 1.55 0.173824 0.961014 -0.215029
4.85 -7.55 0.25 -0.595573 -0.78339 0.177743
3.05 -7.35 0.05 -0.059664 0.991178 -0.118345
0.95 -8.45 1.45 -0.5404 -0.166165 -0.824837
4.55 -7.55 0.15 0.227681 0.960663 -0.159022
3.65 -7.45 -0.15 0.408134 0.907507 -0.0992822
4.05 -7.45 -0.15 0.0506734 0.798726 -0.599558
2.75 -7.65 0.85 0.470617 -0.69428 -0.544513
4.65 -7.45 -0.15 0.384676 0.855934 -0.345545
2.55 -7.45 0.45 0.0555465 0.992244 0.111203
2.65 -7.45 -0.15 -0.149803 0.821914 0.54956
5.25 -8.05 0.05 -0.698847 -0.710132 0.0855913
1.65 -7.65 1.45 0.957632 -0.0756003 0.277896
1.65 -7.85 0.95 0.933323 -0.073186 0.3515
3.65 -8.35 -0.25 0.134049 -0.0492503 0.98975
5.55 -7.55 -0.15 -0.132775 -0.527588 -0.83906
6.25 -8.35 -0.15 0.102108 0.0349059 0.994161
1.75 -6.95 1.25 0.869162 0.0869651 0.486821
2.05 -6.95 -0.45 0.0628549 0.0254634 -0.997698
6.65 -8.65 -0.15 -0.155508 -0.192093 -0.968978
5.65 -8.35 1.85 0.769167 0.627742 -0.119676
0.85 -7.05 1.55 -0.0617807 0.178464 0.982005
5.15 -7.95 0.15 -0.676665 -0.734994 -0.0436765
3.55 -7.85 0.75 0.420993 0.429706 0.798823
5.25 -7.95 -0.15 -0.155069 -0.789331 -0.594062
3.75 -8.45 1.25 -0.337878 0.932501 0.127594
1.35 -6.45 1.15 -0.261588 -0.828314 -0.495447
0.95 -7.05 -0.35 0.250571 0.905309 -0.342973
1.85 -6.45 -0.35 -0.16107 -0.0122397 -0.986867
4.85 -7.55 1.15 -0.625151 -0.780369 -0.0145455
5.15 -8.05 1.65 0.902944 0.428464 -0.0333298
3.35 -7.45 0.15 -0.0983605 -0.994715 0.0294661
4.25 -7.85 0.65 -0.579881 0.807745 0.106232
5.35 -8.15 0.95 -0.697515 -0.714715 -0.051521
3.45 -8.15 2.25 -0.238902 0.968769 -0.0664232
1.45 -6.05 0.75 -0.473368 -0.878327 0.0668228
0.55 -4.85 2.75 0.811739 0.57592 -0.0969297
0.45 -4.95 4.75 0.847106 0.516246 -0.126101
0.25 -4.85 1.15 0.804903 0.515699 0.293574
0.65 -4.95 0.05 -0.547218 -0.0960047 -0.831466
5.05 -7.75 1.55 0.719017 0.691161 -0.072883
2.35 -5.15 -0.05 0.334736 0.426243 0.840398
2.35 -6.35 0.25 0.424527 -0.66668 -0.61263
5.05 -7.75 0.95 -0.671499 -0.739809 0.0420967
2.95 -8.35 1.75 0.00101139 0.999601 0.0282364
5.35 -7.95 0.15 -0.633241 -0.772708 -0.0439151
5.35 -8.05 0.45 -0.700397 -0.709061 -0.0817068
2.45 -5.75 -0.15 -0.0717733 -0.281099 -0.956991
4.35 -7.35 -0.05 0.0361138 0.946873 -0.319573
3.75 -7.65 0.25 0.718576 0.668056 0.193262
5.25 -7.85 1.45 0.838043 0.527062 -0.141031
4.35 -7.95 0.75 0.657652 -0.749627 -0.0745247
4.75 -7.65 1.85 0.583183 0.764017 -0.276
5.25 -7.85 0.95 -0.686694 -0.726215 -0.0325986
4.85 -7.55 1.55 0.514027 0.857265 -0.0295638
5.05 -7.65 1.35 -0.684518 -0.723169 0.0919828
2.35 -6.95 0.85 0.223264 0.749096 -0.623705
5.25 -7.85 0.55 -0.694026 -0.719926 0.00579008
4.95 -7.65 0.25 -0.649962 -0.757078 0.0662044
4.75 -7.35 0.65 0.770262 0.634054 0.0683453
2.25 -7.05 -0.35 0.0116725 -0.143165 -0.98963
5.45 -8.15 0.25 0.702948 0.705056 -0.0935885
3.25 -8.35 1.25 -0.0899253 0.87147 0.482134
3.65 -7.75 0.85 -0.252245 -0.772843 -0.582311
5.55 -8.55 0.65 -0.670509 -0.737859 -0.0773428
5.65 -8.35 0.35 0.74575 0.664575 -0.0468782
5.35 -8.05 0.05 0.748584 0.580266 0.3208
5.75 -8.45 1.25 -0.62791 -0.77807 0.0183652
5.85 -8.45 0.55 -0.687591 -0.725091 0.0382428
5.65 -8.25 0.95 -0.668535 -0.73762 -0.0947564
5.95 -8.55 1.45 -0.676956 -0.72721 -0.113562
5.85 -8.45 0.85 -0.672917 -0.730503 -0.116399
1.55 -6.65 -0.05 0.145198 0.829953 -0.538605
