ply
format ascii 1.0
comment Created by Open3D
element vertex 703
property float x
property float y
property float z
property float nx
property float ny
property float nz
end_header
-8.02 13.7712 0.63696 -0.999999 0.000977516 0.000977516
-8.02 14.4225 1.35441 -0.999999 0.000977516 0.000977516
-8.02 14.2762 0.589172 -0.999999 0.000977516 0.000977516
-8.02 14.1862 0.9862 -0.999999 0.000977516 0.000977516
-8.02 14.07 0.817705 -0.999999 0.000977516 0.000977516
-8.02 14.385 0.943364 -0.999999 0.000977516 0.000977516
-8.02 13.5925 0.504564 -0.999999 0.000977516 0.000977516
-8.02 14.0175 0.604103 -0.999999 0.000977516 0.000977516
-8.02 14.465 0.729863 -0.999999 0.000977516 0.000977516
-8.02 14.265 1.18424 -0.999999 0.000977516 0.000977516
-8.02 14.4675 1.12702 -0.999999 0.000977516 0.000977516
-8.02 13.8438 0.828946 -0.999999 0.000977516 0.000977516
-8.02 14.4612 0.503315 -0.999999 0.000977516 0.000977516
-8.02 13.6338 1.48356 -0.999999 0.000977516 0.000977516
-8.02 13.8088 1.10061 -0.999999 0.000977516 0.000977516
-8.02 13.5875 1.13992 -0.999999 0.000977516 0.000977516
-8.02 14.005 1.2992 -0.999999 0.000977516 0.000977516
-8.02 13.5188 0.919133 -0.999999 0.000977516 0.000977516
-8.02 14.13 1.48473 -0.999999 0.000977516 0.000977516
-8.02 13.5812 0.710492 -0.999999 0.000977516 0.000977516
-8.02 13.7412 1.29574 -0.999999 0.000977516 0.000977516
-8.02 13.8788 1.49355 -0.999999 0.000977516 0.000977516
-6.72 10.33 1.18104 -0.999999 0.000977516 0.000977516
-6.72 10.0175 1.39937 -0.999999 0.000977516 0.000977516
-6.72 10.2725 1.44033 -0.999999 0.000977516 0.000977516
-6.72 10.8375 1.5959 -0.999999 0.000977516 0.000977516
-6.72 10.7088 1.41795 -0.999999 0.000977516 0.000977516
-6.72 10.1812 1.64316 -0.999999 0.000977516 0.000977516
-6.72 10.0988 0.821591 -0.999999 0.000977516 0.000977516
-6.72 10.1138 1.06334 -0.999999 0.000977516 0.000977516
-6.72 10.4425 1.57407 -0.999999 0.000977516 0.000977516
-6.72 10.4825 1.37153 -0.999999 0.000977516 0.000977516
-6.72 10.6262 1.66538 -0.999999 0.000977516 0.000977516
-6.72 10.5488 1.00937 -0.999999 0.000977516 0.000977516
-6.72 10.7675 0.871528 -0.999999 0.000977516 0.000977516
-6.72 11 1.45081 -0.999999 0.000977516 0.000977516
-6.72 10.2962 0.968622 -0.999999 0.000977516 0.000977516
-6.72 10.95 1.13542 -0.999999 0.000977516 0.000977516
-6.72 10.4975 0.729609 -0.999999 0.000977516 0.000977516
-6.72 10.9862 0.873927 -0.999999 0.000977516 0.000977516
-6.72 10.7375 1.21722 -0.999999 0.000977516 0.000977516
-6.72 10.2838 0.701711 -0.999999 0.000977516 0.000977516
-4.02 13.5775 1.19688 -0.999999 0.000977516 0.000977516
-4.02 13.5912 1.59748 -0.999999 0.000977516 0.000977516
-4.02 12.975 1.1741 -0.999999 0.000977516 0.000977516
-4.02 13.2825 1.48438 -0.999999 0.000977516 0.000977516
-4.02 13.335 1.04742 -0.999999 0.000977516 0.000977516
-4.02 12.7588 0.941569 -0.999999 0.000977516 0.000977516
-4.02 13.4738 1.39848 -0.999999 0.000977516 0.000977516
-4.02 13.095 0.969321 -0.999999 0.000977516 0.000977516
-4.02 13.5312 1.8007 -0.999999 0.000977516 0.000977516
-4.02 13.18 1.22901 -0.999999 0.000977516 0.000977516
-4.02 13.5862 0.98762 -0.999999 0.000977516 0.000977516
-4.02 12.9212 1.70343 -0.999999 0.000977516 0.000977516
-4.02 12.76 1.42757 -0.999999 0.000977516 0.000977516
-4.02 13.305 1.75759 -0.999999 0.000977516 0.000977516
-4.02 13.1238 1.87411 -0.999999 0.000977516 0.000977516
-4.02 12.6762 1.17829 -0.999999 0.000977516 0.000977516
-4.02 12.7225 1.89663 -0.999999 0.000977516 0.000977516
-4.02 12.965 1.44338 -0.999999 0.000977516 0.000977516
-4.02 12.6188 1.65743 -0.999999 0.000977516 0.000977516
-4.02 13.1338 1.6473 -0.999999 0.000977516 0.000977516
-2.32 9.5625 2.00482 -0.999999 0.000977516 0.000977516
-2.32 8.99875 1.8042 -0.999999 0.000977516 0.000977516
-2.32 9.21125 1.60174 -0.999999 0.000977516 0.000977516
-2.32 8.875 1.29507 -0.999999 0.000977516 0.000977516
-2.32 9.17875 2.0316 -0.999999 0.000977516 0.000977516
-2.32 8.80125 2.03895 -0.999999 0.000977516 0.000977516
-2.32 9.36 1.93384 -0.999999 0.000977516 0.000977516
-2.32 9.00125 1.60299 -0.999999 0.000977516 0.000977516
-2.32 8.8 1.61887 -0.999999 0.000977516 0.000977516
-2.32 9.10875 1.416 -0.999999 0.000977516 0.000977516
-2.32 9.38375 1.72292 -0.999999 0.000977516 0.000977516
-2.32 9.76125 2.08404 -0.999999 0.000977516 0.000977516
-2.32 9.295 1.22174 -0.999999 0.000977516 0.000977516
-2.32 9.765 1.24298 -0.999999 0.000977516 0.000977516
-2.32 9.4025 1.41257 -0.999999 0.000977516 0.000977516
-2.32 9.62875 1.7201 -0.999999 0.000977516 0.000977516
-2.32 9.77875 1.86929 -0.999999 0.000977516 0.000977516
-2.32 9.76625 1.49544 -0.999999 0.000977516 0.000977516
-2.32 9.08 1.10524 -0.999999 0.000977516 0.000977516
-2.32 9.46375 1.1059 -0.999999 0.000977516 0.000977516
1.88 12.1688 1.37343 -0.999999 0.000977516 0.000977516
1.88 12.1712 1.70466 -0.999999 0.000977516 0.000977516
1.88 12.3612 1.7722 -0.999999 0.000977516 0.000977516
1.88 12.08 1.94768 -0.999999 0.000977516 0.000977516
1.88 11.6538 1.40021 -0.999999 0.000977516 0.000977516
1.88 11.9875 1.49815 -0.999999 0.000977516 0.000977516
1.88 12.3225 2.07562 -0.999999 0.000977516 0.000977516
1.88 11.7962 1.56472 -0.999999 0.000977516 0.000977516
1.88 12.3662 1.53633 -0.999999 0.000977516 0.000977516
1.88 11.9712 1.71136 -0.999999 0.000977516 0.000977516
1.88 11.4538 1.33303 -0.999999 0.000977516 0.000977516
1.88 12.37 1.31281 -0.999999 0.000977516 0.000977516
1.88 11.8625 1.31052 -0.999999 0.000977516 0.000977516
1.88 11.525 2.07647 -0.999999 0.000977516 0.000977516
1.88 11.8362 2.22993 -0.999999 0.000977516 0.000977516
1.88 11.4075 1.71025 -0.999999 0.000977516 0.000977516
1.88 12.1612 2.29524 -0.999999 0.000977516 0.000977516
1.88 11.6412 1.7166 -0.999999 0.000977516 0.000977516
1.88 11.8712 1.91107 -0.999999 0.000977516 0.000977516
1.88 11.4188 2.29758 -0.999999 0.000977516 0.000977516
1.88 11.4075 1.91047 -0.999999 0.000977516 0.000977516
1.88 11.625 2.27768 -0.999999 0.000977516 0.000977516
1.88 12.3938 2.29358 -0.999999 0.000977516 0.000977516
1.78 7.58375 2.37052 -0.999999 0.000977516 0.000977516
1.78 7.4625 2.08354 -0.999999 0.000977516 0.000977516
1.78 7.35125 2.27235 -0.999999 0.000977516 0.000977516
1.78 7.2375 1.81982 -0.999999 0.000977516 0.000977516
1.78 7.815 2.22831 -0.999999 0.000977516 0.000977516
1.78 7.92125 2.40727 -0.999999 0.000977516 0.000977516
1.78 7.1675 1.62325 -0.999999 0.000977516 0.000977516
1.78 7.12 2.06772 -0.999999 0.000977516 0.000977516
1.78 7.245 2.46121 -0.999999 0.000977516 0.000977516
1.78 7.1075 2.30324 -0.999999 0.000977516 0.000977516
1.78 7.44625 1.87534 -0.999999 0.000977516 0.000977516
1.78 7.71 1.50296 -0.999999 0.000977516 0.000977516
1.78 7.83375 1.97478 -0.999999 0.000977516 0.000977516
1.78 7.7625 1.73331 -0.999999 0.000977516 0.000977516
1.78 8.06875 1.93721 -0.999999 0.000977516 0.000977516
1.78 7.4175 1.5428 -0.999999 0.000977516 0.000977516
1.78 7.96 1.53151 -0.999999 0.000977516 0.000977516
1.78 8.04125 2.1861 -0.999999 0.000977516 0.000977516
1.78 8.09375 1.7089 -0.999999 0.000977516 0.000977516
4.68 10.3712 1.79339 -0.999999 0.000977516 0.000977516
4.68 9.94625 1.81773 -0.999999 0.000977516 0.000977516
4.68 10.5075 2.46214 -0.999999 0.000977516 0.000977516
4.68 10.5238 2.07414 -0.999999 0.000977516 0.000977516
4.68 10.1438 1.90334 -0.999999 0.000977516 0.000977516
4.68 10.6888 1.86271 -0.999999 0.000977516 0.000977516
4.68 10.2838 2.13592 -0.999999 0.000977516 0.000977516
4.68 10.6712 2.6335 -0.999999 0.000977516 0.000977516
4.68 10.6275 2.2845 -0.999999 0.000977516 0.000977516
4.68 9.76125 1.73261 -0.999999 0.000977516 0.000977516
4.68 10.3575 2.32428 -0.999999 0.000977516 0.000977516
4.68 10.1562 2.47035 -0.999999 0.000977516 0.000977516
4.68 9.88625 2.07349 -0.999999 0.000977516 0.000977516
4.68 9.9175 2.42989 -0.999999 0.000977516 0.000977516
4.68 10.0262 2.66996 -0.999999 0.000977516 0.000977516
4.68 10.3888 2.64033 -0.999999 0.000977516 0.000977516
4.68 9.7225 2.27533 -0.999999 0.000977516 0.000977516
4.68 9.70625 2.58539 -0.999999 0.000977516 0.000977516
4.68 10.1062 2.25 -0.999999 0.000977516 0.000977516
4.68 9.705 1.98628 -0.999999 0.000977516 0.000977516
5.28 5.35 2.34589 -0.999999 0.000977516 0.000977516
5.28 5.665 2.44471 -0.999999 0.000977516 0.000977516
5.28 5.33875 2.61139 -0.999999 0.000977516 0.000977516
5.28 5.60625 2.66836 -0.999999 0.000977516 0.000977516
5.28 5.475 2.09875 -0.999999 0.000977516 0.000977516
5.28 5.81625 2.66139 -0.999999 0.000977516 0.000977516
5.28 5.93 2.49504 -0.999999 0.000977516 0.000977516
5.28 5.265 1.80436 -0.999999 0.000977516 0.000977516
5.28 5.25125 2.07099 -0.999999 0.000977516 0.000977516
5.28 6.08375 2.68909 -0.999999 0.000977516 0.000977516
5.28 5.6075 2.25021 -0.999999 0.000977516 0.000977516
5.28 5.89875 2.242 -0.999999 0.000977516 0.000977516
5.28 5.97 1.85777 -0.999999 0.000977516 0.000977516
5.28 5.6875 1.91552 -0.999999 0.000977516 0.000977516
5.28 6.12 2.2421 -0.999999 0.000977516 0.000977516
5.28 5.4625 1.73885 -0.999999 0.000977516 0.000977516
5.28 5.70875 1.70716 -0.999999 0.000977516 0.000977516
5.28 6.155 1.72588 -0.999999 0.000977516 0.000977516
5.28 6.19625 1.94529 -0.999999 0.000977516 0.000977516
5.28 6.17375 2.47953 -0.999999 0.000977516 0.000977516
8.6 7.90625 2.3271 -0.999999 0.000977516 0.000977516
8.6 8.27125 2.2072 -0.999999 0.000977516 0.000977516
8.6 8.11 2.74342 -0.999999 0.000977516 0.000977516
8.6 7.72625 2.14958 -0.999999 0.000977516 0.000977516
8.6 8.27 2.48877 -0.999999 0.000977516 0.000977516
8.6 7.87125 2.55076 -0.999999 0.000977516 0.000977516
8.6 8.36625 2.81409 -0.999999 0.000977516 0.000977516
8.6 8.3925 3.08694 -0.999999 0.000977516 0.000977516
8.6 8.085 2.13264 -0.999999 0.000977516 0.000977516
8.6 7.6625 2.35767 -0.999999 0.000977516 0.000977516
8.6 7.4675 2.14576 -0.999999 0.000977516 0.000977516
8.6 8.06 2.45738 -0.999999 0.000977516 0.000977516
8.6 7.4325 2.71633 -0.999999 0.000977516 0.000977516
8.6 7.62 2.90728 -0.999999 0.000977516 0.000977516
8.6 7.88125 2.91947 -0.999999 0.000977516 0.000977516
8.6 8.08625 3.01899 -0.999999 0.000977516 0.000977516
8.6 7.415 3.09084 -0.999999 0.000977516 0.000977516
8.6 7.51375 2.4988 -0.999999 0.000977516 0.000977516
8.6 7.70375 2.69577 -0.999999 0.000977516 0.000977516
8.88 2.835 2.35699 -0.999999 0.000977516 0.000977516
8.88 2.86625 2.88019 -0.999999 0.000977516 0.000977516
8.88 2.6275 2.57451 -0.999999 0.000977516 0.000977516
8.88 2.445 2.84792 -0.999999 0.000977516 0.000977516
8.88 2.64875 2.22979 -0.999999 0.000977516 0.000977516
8.88 2.515 2.05669 -0.999999 0.000977516 0.000977516
8.88 3.35125 2.86209 -0.999999 0.000977516 0.000977516
8.88 2.4375 2.43844 -0.999999 0.000977516 0.000977516
8.88 3.16125 2.69936 -0.999999 0.000977516 0.000977516
8.88 2.96125 2.66968 -0.999999 0.000977516 0.000977516
8.88 2.66 2.88525 -0.999999 0.000977516 0.000977516
8.88 2.4 2.64831 -0.999999 0.000977516 0.000977516
8.88 3.2725 2.22318 -0.999999 0.000977516 0.000977516
8.88 2.85375 2.02998 -0.999999 0.000977516 0.000977516
8.88 3.1575 2.45862 -0.999999 0.000977516 0.000977516
8.88 3.38 1.94184 -0.999999 0.000977516 0.000977516
8.88 2.68375 1.92228 -0.999999 0.000977516 0.000977516
8.88 3.39375 2.43755 -0.999999 0.000977516 0.000977516
8.88 3.0625 2.17822 -0.999999 0.000977516 0.000977516
8.88 3.1525 1.93334 -0.999999 0.000977516 0.000977516
8.88 3.3575 2.64312 -0.999999 0.000977516 0.000977516
13.38 4.23625 2.73793 -0.999999 0.000977516 0.000977516
13.38 4.02875 2.31057 -0.999999 0.000977516 0.000977516
13.38 4.31 2.94396 -0.999999 0.000977516 0.000977516
13.38 3.82 2.24309 -0.999999 0.000977516 0.000977516
13.38 4.38875 2.32791 -0.999999 0.000977516 0.000977516
13.38 4.0125 2.66419 -0.999999 0.000977516 0.000977516
13.38 3.59375 2.1055 -0.999999 0.000977516 0.000977516
13.38 4.17625 2.10158 -0.999999 0.000977516 0.000977516
13.38 4.375 2.58159 -0.999999 0.000977516 0.000977516
13.38 3.7925 2.48476 -0.999999 0.000977516 0.000977516
13.38 4.1875 2.44789 -0.999999 0.000977516 0.000977516
13.38 4.39 2.12433 -0.999999 0.000977516 0.000977516
13.38 3.76 2.886 -0.999999 0.000977516 0.000977516
13.38 3.5875 2.5958 -0.999999 0.000977516 0.000977516
13.38 3.94375 3.09288 -0.999999 0.000977516 0.000977516
13.38 3.48875 3.04994 -0.999999 0.000977516 0.000977516
13.38 3.40125 2.34537 -0.999999 0.000977516 0.000977516
13.38 4.1475 3.06962 -0.999999 0.000977516 0.000977516
13.38 3.46125 2.81267 -0.999999 0.000977516 0.000977516
13.38 4.025 2.87272 -0.999999 0.000977516 0.000977516
13.38 3.60125 2.39083 -0.999999 0.000977516 0.000977516
13.18 -0.735 2.51299 -0.999999 0.000977516 0.000977516
13.18 -1.085 1.86334 -0.999999 0.000977516 0.000977516
13.18 -0.3075 2.50577 -0.999999 0.000977516 0.000977516
13.18 -1.09125 2.40282 -0.999999 0.000977516 0.000977516
13.18 -0.62125 2.678 -0.999999 0.000977516 0.000977516
13.18 -0.655 2.23466 -0.999999 0.000977516 0.000977516
13.18 -0.8775 2.36037 -0.999999 0.000977516 0.000977516
13.18 -1.05375 2.17288 -0.999999 0.000977516 0.000977516
13.18 -1.07875 2.68094 -0.999999 0.000977516 0.000977516
13.18 -0.83375 1.97066 -0.999999 0.000977516 0.000977516
13.18 -0.5325 2.47867 -0.999999 0.000977516 0.000977516
13.18 -0.16625 2.66413 -0.999999 0.000977516 0.000977516
13.18 -0.7875 1.77533 -0.999999 0.000977516 0.000977516
13.18 -0.37 1.76652 -0.999999 0.000977516 0.000977516
13.18 -0.4525 2.22647 -0.999999 0.000977516 0.000977516
13.18 -0.545 1.94266 -0.999999 0.000977516 0.000977516
13.18 -0.24375 2.15981 -0.999999 0.000977516 0.000977516
13.18 -0.12875 1.93667 -0.999999 0.000977516 0.000977516
13.18 -0.10125 2.40545 -0.999999 0.000977516 0.000977516
13.18 -0.5675 1.73318 -0.999999 0.000977516 0.000977516
13.18 -0.1425 1.70529 -0.999999 0.000977516 0.000977516
12.98 -6.33 1.50158 -0.999999 0.000977516 0.000977516
12.98 -5.7375 1.82508 -0.999999 0.000977516 0.000977516
12.98 -5.79875 1.59789 -0.999999 0.000977516 0.000977516
12.98 -5.83875 1.32789 -0.999999 0.000977516 0.000977516
12.98 -5.93625 1.79477 -0.999999 0.000977516 0.000977516
12.98 -6.08625 1.49061 -0.999999 0.000977516 0.000977516
12.98 -5.605 1.43415 -0.999999 0.000977516 0.000977516
12.98 -5.74875 2.07155 -0.999999 0.000977516 0.000977516
12.98 -6.52125 1.32234 -0.999999 0.000977516 0.000977516
12.98 -5.62375 2.27 -0.999999 0.000977516 0.000977516
12.98 -6.21375 1.6687 -0.999999 0.000977516 0.000977516
12.98 -5.60375 1.64344 -0.999999 0.000977516 0.000977516
12.98 -6.18 1.30889 -0.999999 0.000977516 0.000977516
12.98 -6.29875 2.03124 -0.999999 0.000977516 0.000977516
12.98 -6.48 2.2622 -0.999999 0.000977516 0.000977516
12.98 -6.5375 1.81336 -0.999999 0.000977516 0.000977516
12.98 -6.18 1.86849 -0.999999 0.000977516 0.000977516
12.98 -6.54625 2.05037 -0.999999 0.000977516 0.000977516
12.98 -6.0375 2.22397 -0.999999 0.000977516 0.000977516
12.98 -6.25125 2.23146 -0.999999 0.000977516 0.000977516
12.98 -6.58 1.53259 -0.999999 0.000977516 0.000977516
12.98 -5.98625 2.01856 -0.999999 0.000977516 0.000977516
12.98 -5.83875 2.2781 -0.999999 0.000977516 0.000977516
11.68 -11.32 1.84831 -0.999999 0.000977516 0.000977516
11.68 -11.045 1.86042 -0.999999 0.000977516 0.000977516
11.68 -10.8112 1.73979 -0.999999 0.000977516 0.000977516
11.68 -11.33 1.13799 -0.999999 0.000977516 0.000977516
11.68 -11.2688 1.53347 -0.999999 0.000977516 0.000977516
11.68 -10.975 1.44446 -0.999999 0.000977516 0.000977516
11.68 -11.45 1.374 -0.999999 0.000977516 0.000977516
11.68 -11.16 1.36124 -0.999999 0.000977516 0.000977516
11.68 -10.6012 1.80425 -0.999999 0.000977516 0.000977516
11.68 -11.4712 1.66116 -0.999999 0.000977516 0.000977516
11.68 -11.0388 1.63661 -0.999999 0.000977516 0.000977516
11.68 -11.4775 0.966016 -0.999999 0.000977516 0.000977516
11.68 -10.8788 1.26718 -0.999999 0.000977516 0.000977516
11.68 -10.9662 1.05523 -0.999999 0.000977516 0.000977516
11.68 -10.75 1.09635 -0.999999 0.000977516 0.000977516
11.68 -11.2788 0.931076 -0.999999 0.000977516 0.000977516
11.68 -10.6312 1.56228 -0.999999 0.000977516 0.000977516
11.68 -10.5662 1.28706 -0.999999 0.000977516 0.000977516
11.68 -10.5612 0.928619 -0.999999 0.000977516 0.000977516
11.68 -10.8312 0.900131 -0.999999 0.000977516 0.000977516
9.92 3.08875 2.8052 0.999999 0.000977516 0.000977516
9.92 3.3125 2.01581 0.999999 0.000977516 0.000977516
9.92 3.12 2.49274 0.999999 0.000977516 0.000977516
9.92 3.3875 2.80831 0.999999 0.000977516 0.000977516
9.92 2.64625 2.87962 0.999999 0.000977516 0.000977516
9.92 2.78125 2.70733 0.999999 0.000977516 0.000977516
9.92 3.21125 2.30589 0.999999 0.000977516 0.000977516
9.92 3.3325 2.55367 0.999999 0.000977516 0.000977516
9.92 2.9 2.89874 0.999999 0.000977516 0.000977516
9.92 2.88125 2.52559 0.999999 0.000977516 0.000977516
9.92 2.98875 2.33482 0.999999 0.000977516 0.000977516
9.92 2.44 2.86026 0.999999 0.000977516 0.000977516
9.92 3.01625 2.05069 0.999999 0.000977516 0.000977516
9.92 2.69875 2.05502 0.999999 0.000977516 0.000977516
9.92 2.49125 1.96493 0.999999 0.000977516 0.000977516
9.92 2.46125 2.47602 0.999999 0.000977516 0.000977516
9.92 2.43875 2.24605 0.999999 0.000977516 0.000977516
9.92 2.67875 2.41207 0.999999 0.000977516 0.000977516
9.92 2.5875 2.6319 0.999999 0.000977516 0.000977516
9.92 2.8 2.2409 0.999999 0.000977516 0.000977516
10.42 -2.79 1.53238 0.999999 0.000977516 0.000977516
10.42 -3.025 2.0765 0.999999 0.000977516 0.000977516
10.42 -2.33 1.46412 0.999999 0.000977516 0.000977516
10.42 -2.7675 1.75601 0.999999 0.000977516 0.000977516
10.42 -2.16125 1.34249 0.999999 0.000977516 0.000977516
10.42 -3.04375 1.78184 0.999999 0.000977516 0.000977516
10.42 -2.81875 1.99029 0.999999 0.000977516 0.000977516
10.42 -2.83625 1.30126 0.999999 0.000977516 0.000977516
10.42 -2.51875 1.65623 0.999999 0.000977516 0.000977516
10.42 -2.54 1.4164 0.999999 0.000977516 0.000977516
10.42 -3.09 1.39216 0.999999 0.000977516 0.000977516
10.42 -2.40625 2.20198 0.999999 0.000977516 0.000977516
10.42 -2.46625 1.98809 0.999999 0.000977516 0.000977516
10.42 -2.82875 2.24654 0.999999 0.000977516 0.000977516
10.42 -2.3375 1.82281 0.999999 0.000977516 0.000977516
10.42 -2.14 2.19821 0.999999 0.000977516 0.000977516
10.42 -2.6225 2.181 0.999999 0.000977516 0.000977516
10.42 -2.225 1.64521 0.999999 0.000977516 0.000977516
10.42 -2.1125 1.84966 0.999999 0.000977516 0.000977516
10.42 -3.07 2.29363 0.999999 0.000977516 0.000977516
8.42 -6.91625 1.88447 0.999999 0.000977516 0.000977516
8.42 -6.525 1.03263 0.999999 0.000977516 0.000977516
8.42 -6.54 1.31954 0.999999 0.000977516 0.000977516
8.42 -7.01875 1.42658 0.999999 0.000977516 0.000977516
8.42 -7.17 1.63786 0.999999 0.000977516 0.000977516
8.42 -6.82125 1.61245 0.999999 0.000977516 0.000977516
8.42 -6.695 1.16056 0.999999 0.000977516 0.000977516
8.42 -6.61625 1.88205 0.999999 0.000977516 0.000977516
8.42 -7.31875 1.83853 0.999999 0.000977516 0.000977516
8.42 -6.62125 1.57216 0.999999 0.000977516 0.000977516
8.42 -6.8525 1.29959 0.999999 0.000977516 0.000977516
8.42 -7.11625 1.86864 0.999999 0.000977516 0.000977516
8.42 -7.3875 1.64516 0.999999 0.000977516 0.000977516
8.42 -7.01 0.909317 0.999999 0.000977516 0.000977516
8.42 -7.425 1.05133 0.999999 0.000977516 0.000977516
8.42 -7.265 1.45557 0.999999 0.000977516 0.000977516
8.42 -7.465 1.27892 0.999999 0.000977516 0.000977516
8.42 -7.1775 1.04487 0.999999 0.000977516 0.000977516
8.42 -6.89875 1.0986 0.999999 0.000977516 0.000977516
8.42 -6.71125 0.938202 0.999999 0.000977516 0.000977516
8.42 -7.1075 1.23829 0.999999 0.000977516 0.000977516
8.12 -11.9738 1.00413 0.999999 0.000977516 0.000977516
8.12 -11.6475 1.0956 0.999999 0.000977516 0.000977516
8.12 -11.9638 1.32406 0.999999 0.000977516 0.000977516
8.12 -11.7138 0.520339 0.999999 0.000977516 0.000977516
8.12 -11.365 0.81076 0.999999 0.000977516 0.000977516
8.12 -11.24 0.535665 0.999999 0.000977516 0.000977516
8.12 -11.625 0.863531 0.999999 0.000977516 0.000977516
8.12 -11.99 0.501796 0.999999 0.000977516 0.000977516
8.12 -11.0262 0.523314 0.999999 0.000977516 0.000977516
8.12 -11.515 0.665716 0.999999 0.000977516 0.000977516
8.12 -11.8062 0.722454 0.999999 0.000977516 0.000977516
8.12 -11.9975 0.793121 0.999999 0.000977516 0.000977516
8.12 -11.0125 1.419 0.999999 0.000977516 0.000977516
8.12 -11.115 0.827668 0.999999 0.000977516 0.000977516
8.12 -11.5375 1.27513 0.999999 0.000977516 0.000977516
8.12 -11.12 1.24597 0.999999 0.000977516 0.000977516
8.12 -11.2838 1.48024 0.999999 0.000977516 0.000977516
8.12 -11.6988 1.43917 0.999999 0.000977516 0.000977516
8.12 -11.2525 1.03011 0.999999 0.000977516 0.000977516
8.12 -11.4588 0.994636 0.999999 0.000977516 0.000977516
8.12 -11.0038 1.05293 0.999999 0.000977516 0.000977516
8.12 -11.33 1.25634 0.999999 0.000977516 0.000977516
-7.41125 13.48 0.841263 0.000977516 0.000977516 0.999999
-7.78812 13.48 1.14698 0.000977516 0.000977516 0.999999
-7.6875 13.48 0.503156 0.000977516 0.000977516 0.999999
-7.28062 13.48 0.604811 0.000977516 0.000977516 0.999999
-7.685 13.48 0.792113 0.000977516 0.000977516 0.999999
-7.88 13.48 0.598294 0.000977516 0.000977516 0.999999
-7.96 13.48 1.29946 0.000977516 0.000977516 0.999999
-7.54 13.48 1.00295 0.000977516 0.000977516 0.999999
-7.4975 13.48 0.571071 0.000977516 0.000977516 0.999999
-7.07562 13.48 0.503054 0.000977516 0.000977516 0.999999
-7.35688 13.48 1.15381 0.000977516 0.000977516 0.999999
-7.49 13.48 1.37582 0.000977516 0.000977516 0.999999
-7.17375 13.48 1.06411 0.000977516 0.000977516 0.999999
-7.01938 13.48 1.39702 0.000977516 0.000977516 0.999999
-7.75562 13.48 1.48903 0.000977516 0.000977516 0.999999
-7.2275 13.48 1.39525 0.000977516 0.000977516 0.999999
-7.02875 13.48 0.882133 0.000977516 0.000977516 0.999999
-7.00688 13.48 1.18522 0.000977516 0.000977516 0.999999
-5.93375 11.02 1.63479 0.000977516 0.000977516 -0.999999
-6.47375 11.02 1.03545 0.000977516 0.000977516 -0.999999
-6.21812 11.02 1.26865 0.000977516 0.000977516 -0.999999
-6.15625 11.02 1.52948 0.000977516 0.000977516 -0.999999
-6.38062 11.02 1.56123 0.000977516 0.000977516 -0.999999
-6.52875 11.02 1.23576 0.000977516 0.000977516 -0.999999
-6.00625 11.02 1.39552 0.000977516 0.000977516 -0.999999
-6.63062 11.02 1.64544 0.000977516 0.000977516 -0.999999
-6.50562 11.02 0.755063 0.000977516 0.000977516 -0.999999
-6.16875 11.02 0.86585 0.000977516 0.000977516 -0.999999
-5.90938 11.02 0.986295 0.000977516 0.000977516 -0.999999
-5.70125 11.02 1.27957 0.000977516 0.000977516 -0.999999
-5.77312 11.02 0.721802 0.000977516 0.000977516 -0.999999
-6.10562 11.02 1.07536 0.000977516 0.000977516 -0.999999
-6.02062 11.02 0.728592 0.000977516 0.000977516 -0.999999
-5.80062 11.02 1.46611 0.000977516 0.000977516 -0.999999
-5.90125 11.02 1.21037 0.000977516 0.000977516 -0.999999
-5.705 11.02 1.02915 0.000977516 0.000977516 -0.999999
-6.29 11.02 0.701009 0.000977516 0.000977516 -0.999999
-1.56688 9.82 1.80845 0.000977516 0.000977516 -0.999999
-1.68875 9.82 1.52813 0.000977516 0.000977516 -0.999999
-1.86688 9.82 1.34005 0.000977516 0.000977516 -0.999999
-1.36438 9.82 1.74771 0.000977516 0.000977516 -0.999999
-1.97688 9.82 1.17287 0.000977516 0.000977516 -0.999999
-1.56375 9.82 1.17304 0.000977516 0.000977516 -0.999999
-1.3825 9.82 1.33545 0.000977516 0.000977516 -0.999999
-1.76125 9.82 1.12476 0.000977516 0.000977516 -0.999999
-1.3425 9.82 1.53366 0.000977516 0.000977516 -0.999999
-1.34688 9.82 1.10656 0.000977516 0.000977516 -0.999999
-1.38188 9.82 1.95264 0.000977516 0.000977516 -0.999999
-2.02562 9.82 1.64305 0.000977516 0.000977516 -0.999999
-1.86188 9.82 1.82133 0.000977516 0.000977516 -0.999999
-2.11062 9.82 1.89068 0.000977516 0.000977516 -0.999999
-1.73875 9.82 2.09562 0.000977516 0.000977516 -0.999999
-1.94312 9.82 2.03733 0.000977516 0.000977516 -0.999999
-1.535 9.82 2.0903 0.000977516 0.000977516 -0.999999
-2.08062 9.82 1.3977 0.000977516 0.000977516 -0.999999
-2.225 9.82 1.68361 0.000977516 0.000977516 -0.999999
2.36688 8.12 2.10696 0.000977516 0.000977516 -0.999999
2.05875 8.12 1.96652 0.000977516 0.000977516 -0.999999
2.32125 8.12 2.38352 0.000977516 0.000977516 -0.999999
2.7025 8.12 2.42451 0.000977516 0.000977516 -0.999999
2.04188 8.12 2.23211 0.000977516 0.000977516 -0.999999
1.99188 8.12 1.74571 0.000977516 0.000977516 -0.999999
1.84 8.12 2.43983 0.000977516 0.000977516 -0.999999
2.1175 8.12 2.48995 0.000977516 0.000977516 -0.999999
2.51812 8.12 2.27226 0.000977516 0.000977516 -0.999999
2.48938 8.12 2.49328 0.000977516 0.000977516 -0.999999
2.24562 8.12 1.6571 0.000977516 0.000977516 -0.999999
2.53625 8.12 1.51672 0.000977516 0.000977516 -0.999999
2.485 8.12 1.73055 0.000977516 0.000977516 -0.999999
2.78312 8.12 2.04455 0.000977516 0.000977516 -0.999999
2.24812 8.12 1.8932 0.000977516 0.000977516 -0.999999
2.79 8.12 1.75181 0.000977516 0.000977516 -0.999999
2.605 8.12 1.89739 0.000977516 0.000977516 -0.999999
2.1 8.12 1.51192 0.000977516 0.000977516 -0.999999
2.77375 8.12 1.51372 0.000977516 0.000977516 -0.999999
6.2025 6.22 2.42886 0.000977516 0.000977516 -0.999999
5.92375 6.22 2.24986 0.000977516 0.000977516 -0.999999
6.18688 6.22 1.92555 0.000977516 0.000977516 -0.999999
5.765 6.22 1.88203 0.000977516 0.000977516 -0.999999
5.98812 6.22 1.71685 0.000977516 0.000977516 -0.999999
5.52375 6.22 1.8528 0.000977516 0.000977516 -0.999999
5.69188 6.22 2.06859 0.000977516 0.000977516 -0.999999
6.28688 6.22 2.2159 0.000977516 0.000977516 -0.999999
6.075 6.22 2.11271 0.000977516 0.000977516 -0.999999
6.24562 6.22 2.6268 0.000977516 0.000977516 -0.999999
6.24688 6.22 1.70541 0.000977516 0.000977516 -0.999999
5.9825 6.22 2.59453 0.000977516 0.000977516 -0.999999
5.55688 6.22 2.42276 0.000977516 0.000977516 -0.999999
5.71625 6.22 2.64216 0.000977516 0.000977516 -0.999999
5.73688 6.22 2.3297 0.000977516 0.000977516 -0.999999
5.50312 6.22 2.2255 0.000977516 0.000977516 -0.999999
5.4475 6.22 2.6847 0.000977516 0.000977516 -0.999999
9.1875 3.42 2.25284 0.000977516 0.000977516 -0.999999
9.25625 3.42 2.76509 0.000977516 0.000977516 -0.999999
9.50062 3.42 2.72289 0.000977516 0.000977516 -0.999999
9.13375 3.42 2.55154 0.000977516 0.000977516 -0.999999
9.065 3.42 2.07919 0.000977516 0.000977516 -0.999999
9.08312 3.42 2.89983 0.000977516 0.000977516 -0.999999
9.43375 3.42 2.46593 0.000977516 0.000977516 -0.999999
9.72188 3.42 2.79796 0.000977516 0.000977516 -0.999999
9.29 3.42 2.01374 0.000977516 0.000977516 -0.999999
9.79062 3.42 2.36467 0.000977516 0.000977516 -0.999999
9.66688 3.42 1.99165 0.000977516 0.000977516 -0.999999
9.57875 3.42 2.28449 0.000977516 0.000977516 -0.999999
9.65188 3.42 2.51151 0.000977516 0.000977516 -0.999999
9.3875 3.42 2.20122 0.000977516 0.000977516 -0.999999
14.1112 -0.08 2.18579 0.000977516 0.000977516 -0.999999
13.9306 -0.08 2.01472 0.000977516 0.000977516 -0.999999
13.395 -0.08 1.85035 0.000977516 0.000977516 -0.999999
14.12 -0.08 1.75134 0.000977516 0.000977516 -0.999999
13.755 -0.08 1.90528 0.000977516 0.000977516 -0.999999
14.0938 -0.08 2.5669 0.000977516 0.000977516 -0.999999
14.1612 -0.08 1.98094 0.000977516 0.000977516 -0.999999
13.8862 -0.08 2.21555 0.000977516 0.000977516 -0.999999
13.7056 -0.08 1.70562 0.000977516 0.000977516 -0.999999
14.1919 -0.08 2.37812 0.000977516 0.000977516 -0.999999
13.9588 -0.08 2.4125 0.000977516 0.000977516 -0.999999
13.6519 -0.08 2.09963 0.000977516 0.000977516 -0.999999
13.6894 -0.08 2.67916 0.000977516 0.000977516 -0.999999
13.4469 -0.08 2.05206 0.000977516 0.000977516 -0.999999
13.5688 -0.08 2.44897 0.000977516 0.000977516 -0.999999
13.2944 -0.08 2.21817 0.000977516 0.000977516 -0.999999
13.4806 -0.08 2.69645 0.000977516 0.000977516 -0.999999
13.6306 4.42 2.57618 0.000977516 0.000977516 -0.999999
13.8081 4.42 2.9289 0.000977516 0.000977516 -0.999999
13.8925 4.42 2.67237 0.000977516 0.000977516 -0.999999
14.1031 4.42 2.85184 0.000977516 0.000977516 -0.999999
14.0375 4.42 3.09546 0.000977516 0.000977516 -0.999999
13.6481 4.42 2.36692 0.000977516 0.000977516 -0.999999
14.3712 4.42 3.0847 0.000977516 0.000977516 -0.999999
13.6156 4.42 3.03541 0.000977516 0.000977516 -0.999999
13.6338 4.42 2.79602 0.000977516 0.000977516 -0.999999
13.9669 4.42 2.43381 0.000977516 0.000977516 -0.999999
14.3 4.42 2.58014 0.000977516 0.000977516 -0.999999
14.3625 4.42 2.36944 0.000977516 0.000977516 -0.999999
13.9725 4.42 2.20635 0.000977516 0.000977516 -0.999999
14.3156 4.42 2.7816 0.000977516 0.000977516 -0.999999
13.7544 4.42 2.1529 0.000977516 0.000977516 -0.999999
14.1912 4.42 2.21865 0.000977516 0.000977516 -0.999999
14.3806 4.42 2.13086 0.000977516 0.000977516 -0.999999
10.0569 -1.98 1.53402 0.000977516 0.000977516 -0.999999
10.0931 -1.98 1.79362 0.000977516 0.000977516 -0.999999
9.495 -1.98 1.30412 0.000977516 0.000977516 -0.999999
10.2612 -1.98 1.64779 0.000977516 0.000977516 -0.999999
9.72562 -1.98 1.48114 0.000977516 0.000977516 -0.999999
10.3094 -1.98 1.38572 0.000977516 0.000977516 -0.999999
10.3262 -1.98 1.98069 0.000977516 0.000977516 -0.999999
9.8775 -1.98 1.70587 0.000977516 0.000977516 -0.999999
9.95 -1.98 1.30207 0.000977516 0.000977516 -0.999999
10.1038 -1.98 1.99465 0.000977516 0.000977516 -0.999999
9.62938 -1.98 1.84559 0.000977516 0.000977516 -0.999999
9.775 -1.98 2.23578 0.000977516 0.000977516 -0.999999
9.58125 -1.98 2.2911 0.000977516 0.000977516 -0.999999
9.72438 -1.98 2.02836 0.000977516 0.000977516 -0.999999
9.40125 -1.98 1.8179 0.000977516 0.000977516 -0.999999
10.1425 -1.98 2.28166 0.000977516 0.000977516 -0.999999
9.45438 -1.98 1.51306 0.000977516 0.000977516 -0.999999
9.41188 -1.98 2.06721 0.000977516 0.000977516 -0.999999
9.97375 -1.98 2.16227 0.000977516 0.000977516 -0.999999
13.7038 -5.58 2.20936 0.000977516 0.000977516 -0.999999
13.2962 -5.58 1.74392 0.000977516 0.000977516 -0.999999
13.6362 -5.58 2.01034 0.000977516 0.000977516 -0.999999
13.1131 -5.58 1.96939 0.000977516 0.000977516 -0.999999
13.4269 -5.58 1.92778 0.000977516 0.000977516 -0.999999
13.3831 -5.58 2.29095 0.000977516 0.000977516 -0.999999
13.1838 -5.58 1.5751 0.000977516 0.000977516 -0.999999
13.2538 -5.58 2.11493 0.000977516 0.000977516 -0.999999
13.9075 -5.58 2.23755 0.000977516 0.000977516 -0.999999
13.9725 -5.58 1.56696 0.000977516 0.000977516 -0.999999
13.5462 -5.58 1.68883 0.000977516 0.000977516 -0.999999
13.6306 -5.58 1.38963 0.000977516 0.000977516 -0.999999
13.8919 -5.58 1.81828 0.000977516 0.000977516 -0.999999
13.835 -5.58 1.30813 0.000977516 0.000977516 -0.999999
13.2412 -5.58 1.32658 0.000977516 0.000977516 -0.999999
13.9812 -5.58 2.01113 0.000977516 0.000977516 -0.999999
13.4344 -5.58 1.45011 0.000977516 0.000977516 -0.999999
13.7575 -5.58 1.65381 0.000977516 0.000977516 -0.999999
7.73875 -6.48 1.05239 0.000977516 0.000977516 -0.999999
7.99875 -6.48 0.97137 0.000977516 0.000977516 -0.999999
8.19312 -6.48 1.33941 0.000977516 0.000977516 -0.999999
8.13188 -6.48 1.54143 0.000977516 0.000977516 -0.999999
8.18438 -6.48 1.09205 0.000977516 0.000977516 -0.999999
8.395 -6.48 1.72352 0.000977516 0.000977516 -0.999999
7.5825 -6.48 0.917253 0.000977516 0.000977516 -0.999999
7.98562 -6.48 1.2175 0.000977516 0.000977516 -0.999999
7.92938 -6.48 1.41019 0.000977516 0.000977516 -0.999999
7.98375 -6.48 1.74659 0.000977516 0.000977516 -0.999999
7.41875 -6.48 1.06335 0.000977516 0.000977516 -0.999999
7.63125 -6.48 1.56586 0.000977516 0.000977516 -0.999999
7.54625 -6.48 1.8909 0.000977516 0.000977516 -0.999999
7.48875 -6.48 1.29418 0.000977516 0.000977516 -0.999999
7.77125 -6.48 1.86737 0.000977516 0.000977516 -0.999999
8.17625 -6.48 1.87773 0.000977516 0.000977516 -0.999999
7.72125 -6.48 1.29824 0.000977516 0.000977516 -0.999999
7.42125 -6.48 1.69067 0.000977516 0.000977516 -0.999999
7.40062 -6.48 1.48935 0.000977516 0.000977516 -0.999999
7.205 -10.98 0.885291 0.000977516 0.000977516 -0.999999
7.53188 -10.98 1.15519 0.000977516 0.000977516 -0.999999
7.19562 -10.98 1.22473 0.000977516 0.000977516 -0.999999
7.86812 -10.98 1.40221 0.000977516 0.000977516 -0.999999
7.16375 -10.98 1.48429 0.000977516 0.000977516 -0.999999
7.41125 -10.98 0.992551 0.000977516 0.000977516 -0.999999
7.52062 -10.98 1.35961 0.000977516 0.000977516 -0.999999
7.36812 -10.98 1.49705 0.000977516 0.000977516 -0.999999
7.145 -10.98 0.609097 0.000977516 0.000977516 -0.999999
7.68 -10.98 1.49968 0.000977516 0.000977516 -0.999999
7.7375 -10.98 1.24243 0.000977516 0.000977516 -0.999999
7.7225 -10.98 0.685566 0.000977516 0.000977516 -0.999999
7.42438 -10.98 0.568575 0.000977516 0.000977516 -0.999999
7.9525 -10.98 0.88186 0.000977516 0.000977516 -0.999999
7.9075 -10.98 1.1272 0.000977516 0.000977516 -0.999999
7.40875 -10.98 0.784104 0.000977516 0.000977516 -0.999999
7.97938 -10.98 0.678685 0.000977516 0.000977516 -0.999999
7.69375 -10.98 0.924436 0.000977516 0.000977516 -0.999999
7.83625 -10.98 0.505434 0.000977516 0.000977516 -0.999999
12.3031 -10.48 1.19674 0.000977516 0.000977516 -0.999999
12.1694 -10.48 1.01655 0.000977516 0.000977516 -0.999999
12.6612 -10.48 1.71136 0.000977516 0.000977516 -0.999999
12.4412 -10.48 0.921582 0.000977516 0.000977516 -0.999999
12.2819 -10.48 1.42051 0.000977516 0.000977516 -0.999999
12.0931 -10.48 1.26383 0.000977516 0.000977516 -0.999999
12.6569 -10.48 1.36631 0.000977516 0.000977516 -0.999999
11.9425 -10.48 1.06068 0.000977516 0.000977516 -0.999999
12.5044 -10.48 1.56628 0.000977516 0.000977516 -0.999999
12.6594 -10.48 0.985917 0.000977516 0.000977516 -0.999999
12.5275 -10.48 1.13902 0.000977516 0.000977516 -0.999999
12.3388 -10.48 1.84558 0.000977516 0.000977516 -0.999999
12.0819 -10.48 1.53631 0.000977516 0.000977516 -0.999999
12.2288 -10.48 1.67239 0.000977516 0.000977516 -0.999999
11.8656 -10.48 1.49307 0.000977516 0.000977516 -0.999999
11.8931 -10.48 1.77412 0.000977516 0.000977516 -0.999999
11.8706 -10.48 1.26567 0.000977516 0.000977516 -0.999999
12.1231 -10.48 1.86078 0.000977516 0.000977516 -0.999999
-9.79812 11.52 1.40431 0.000977516 0.000977516 0.999999
-9.8125 11.52 0.941547 0.000977516 0.000977516 0.999999
-9.55 11.52 1.47162 0.000977516 0.000977516 0.999999
-9.56 11.52 0.64036 0.000977516 0.000977516 0.999999
-9.52312 11.52 0.897765 0.000977516 0.000977516 0.999999
-10.025 11.52 1.29506 0.000977516 0.000977516 0.999999
-9.59875 11.52 1.13512 0.000977516 0.000977516 0.999999
-10.3781 11.52 1.41122 0.000977516 0.000977516 0.999999
-10.2225 11.52 1.2286 0.000977516 0.000977516 0.999999
-10.1344 11.52 1.46545 0.000977516 0.000977516 0.999999
-9.80875 11.52 1.20048 0.000977516 0.000977516 0.999999
-9.99938 11.52 1.01458 0.000977516 0.000977516 0.999999
-9.74188 11.52 0.742687 0.000977516 0.000977516 0.999999
-10.2825 11.52 0.73521 0.000977516 0.000977516 0.999999
-10.1688 11.52 0.543913 0.000977516 0.000977516 0.999999
-10.375 11.52 0.530254 0.000977516 0.000977516 0.999999
-9.95125 11.52 0.711939 0.000977516 0.000977516 0.999999
-10.4094 11.52 1.04243 0.000977516 0.000977516 0.999999
-10.2131 11.52 0.927647 0.000977516 0.000977516 0.999999
-10.4869 11.52 1.2393 0.000977516 0.000977516 0.999999
-9.72438 11.52 0.511711 0.000977516 0.000977516 0.999999
-9.94 11.52 0.502275 0.000977516 0.000977516 0.999999
-3.48812 12.58 1.15063 0.000977516 0.000977516 0.999999
-3.12438 12.58 0.952372 0.000977516 0.000977516 0.999999
-3.67562 12.58 0.934231 0.000977516 0.000977516 0.999999
-3.70875 12.58 1.19222 0.000977516 0.000977516 0.999999
-3.32188 12.58 0.912182 0.000977516 0.000977516 0.999999
-3.72062 12.58 1.57754 0.000977516 0.000977516 0.999999
-3.87812 12.58 0.906805 0.000977516 0.000977516 0.999999
-3.55812 12.58 1.40999 0.000977516 0.000977516 0.999999
-3.245 12.58 1.14074 0.000977516 0.000977516 0.999999
-3.9 12.58 1.42791 0.000977516 0.000977516 0.999999
-3.285 12.58 1.64506 0.000977516 0.000977516 0.999999
-3.18062 12.58 1.37227 0.000977516 0.000977516 0.999999
-3.10812 12.58 1.82184 0.000977516 0.000977516 0.999999
-3.39875 12.58 1.88475 0.000977516 0.000977516 0.999999
-3.6 12.58 1.75945 0.000977516 0.000977516 0.999999
-3.87625 12.58 1.80609 0.000977516 0.000977516 0.999999
-3.03875 12.58 1.14112 0.000977516 0.000977516 0.999999
-3.065 12.58 1.53669 0.000977516 0.000977516 0.999999
2.07812 11.38 2.25301 0.000977516 0.000977516 0.999999
2.35812 11.38 2.02773 0.000977516 0.000977516 0.999999
2.66188 11.38 1.81021 0.000977516 0.000977516 0.999999
2.56125 11.38 2.22619 0.000977516 0.000977516 0.999999
2.84562 11.38 1.54629 0.000977516 0.000977516 0.999999
2.81375 11.38 1.9722 0.000977516 0.000977516 0.999999
2.75938 11.38 2.25767 0.000977516 0.000977516 0.999999
2.28812 11.38 2.22629 0.000977516 0.000977516 0.999999
2.45812 11.38 1.74885 0.000977516 0.000977516 0.999999
2.89438 11.38 1.74234 0.000977516 0.000977516 0.999999
2.57375 11.38 2.01518 0.000977516 0.000977516 0.999999
2.53438 11.38 1.47876 0.000977516 0.000977516 0.999999
2.29812 11.38 1.53134 0.000977516 0.000977516 0.999999
2.14188 11.38 1.85639 0.000977516 0.000977516 0.999999
2.73125 11.38 1.3633 0.000977516 0.000977516 0.999999
2.09438 11.38 1.46356 0.000977516 0.000977516 0.999999
2.36375 11.38 1.31527 0.000977516 0.000977516 0.999999
-11.2562 13.98 0.946516 0.000977516 0.000977516 0.999999
-11.2938 13.98 0.642427 0.000977516 0.000977516 0.999999
-10.7262 13.98 0.72574 0.000977516 0.000977516 0.999999
-11.0281 13.98 0.994612 0.000977516 0.000977516 0.999999
-10.9394 13.98 0.69354 0.000977516 0.000977516 0.999999
-11.4812 13.98 1.35006 0.000977516 0.000977516 0.999999
-11.0225 13.98 0.505487 0.000977516 0.000977516 0.999999
-11.3831 13.98 1.1327 0.000977516 0.000977516 0.999999
-11.4475 13.98 0.797829 0.000977516 0.000977516 0.999999
-10.5894 13.98 0.513304 0.000977516 0.000977516 0.999999
-10.8006 13.98 0.508006 0.000977516 0.000977516 0.999999
-11.1856 13.98 1.18425 0.000977516 0.000977516 0.999999
-11.1144 13.98 0.799222 0.000977516 0.000977516 0.999999
-11.4738 13.98 0.530177 0.000977516 0.000977516 0.999999
-10.67 13.98 1.13552 0.000977516 0.000977516 0.999999
-11.065 13.98 1.40732 0.000977516 0.000977516 0.999999
-10.8219 13.98 0.991441 0.000977516 0.000977516 0.999999
-10.6925 13.98 1.34098 0.000977516 0.000977516 0.999999
-10.5031 13.98 0.896983 0.000977516 0.000977516 0.999999
-11.335 13.98 1.49945 0.000977516 0.000977516 0.999999
-10.9206 13.98 1.22867 0.000977516 0.000977516 0.999999
-10.5462 13.98 1.48533 0.000977516 0.000977516 0.999999
-10.8381 13.98 1.48261 0.000977516 0.000977516 0.999999
-10.52 11.0025 1.20358 -0.999999 0.000977516 0.000977516
-10.52 10.6725 1.15264 -0.999999 0.000977516 0.000977516
-10.52 10.6562 1.47371 -0.999999 0.000977516 0.000977516
-10.52 11.1525 1.48866 -0.999999 0.000977516 0.000977516
-10.52 11.2525 1.28588 -0.999999 0.000977516 0.000977516
-10.52 10.9288 0.950593 -0.999999 0.000977516 0.000977516
-10.52 10.5875 0.684088 -0.999999 0.000977516 0.000977516
-10.52 10.5688 0.900034 -0.999999 0.000977516 0.000977516
-10.52 10.8725 1.4664 -0.999999 0.000977516 0.000977516
-10.52 10.7675 0.778826 -0.999999 0.000977516 0.000977516
-10.52 11.385 1.47409 -0.999999 0.000977516 0.000977516
-10.52 10.5338 1.30403 -0.999999 0.000977516 0.000977516
-10.52 11.3612 0.918651 -0.999999 0.000977516 0.000977516
-10.52 11.165 0.749956 -0.999999 0.000977516 0.000977516
-10.52 10.7588 0.539459 -0.999999 0.000977516 0.000977516
-10.52 11.2188 1.0662 -0.999999 0.000977516 0.000977516
-10.52 11.0075 0.541803 -0.999999 0.000977516 0.000977516
-10.52 11.3738 0.631083 -0.999999 0.000977516 0.000977516
