ply
format ascii 1.0
comment Created by Open3D
element vertex 880
property float x
property float y
property float z
property float nx
property float ny
property float nz
end_header
5.10236 -2.00069 1.2 0.000977516 -0.999999 0.000977516
4.61525 -2.2206 1.2 0.000977516 -0.999999 0.000977516
4.58602 -2.49259 1.2 0.000977516 -0.999999 0.000977516
4.31716 -2.49623 1.2 0.000977516 -0.999999 0.000977516
5.07868 -1.73231 1.2 0.000977516 -0.999999 0.000977516
4.38114 -2.27612 1.2 0.000977516 -0.999999 0.000977516
4.45545 -2.03074 1.2 0.000977516 -0.999999 0.000977516
4.86975 -1.58866 1.2 0.000977516 -0.999999 0.000977516
4.81102 -1.80918 1.2 0.000977516 -0.999999 0.000977516
5.06138 -1.52781 1.2 0.000977516 -0.999999 0.000977516
4.59165 -1.84261 1.2 0.000977516 -0.999999 0.000977516
4.66851 -1.63183 1.2 0.000977516 -0.999999 0.000977516
4.32064 -1.83507 1.2 0.000977516 -0.999999 0.000977516
4.46967 -1.51625 1.2 0.000977516 -0.999999 0.000977516
4.30064 -1.62337 1.2 0.000977516 -0.999999 0.000977516
5.25411 -2.11621 2.2 0.000977516 0.999999 0.000977516
5.15906 -2.38564 2.2 0.000977516 0.999999 0.000977516
4.86712 -2.46151 2.2 0.000977516 0.999999 0.000977516
4.97777 -2.02926 2.2 0.000977516 0.999999 0.000977516
4.9791 -2.2678 2.2 0.000977516 0.999999 0.000977516
4.8018 -2.1382 2.2 0.000977516 0.999999 0.000977516
5.23165 -1.84216 2.2 0.000977516 0.999999 0.000977516
5.29894 -1.61951 2.2 0.000977516 0.999999 0.000977516
5.03836 -1.76238 2.2 0.000977516 0.999999 0.000977516
4.42142 -2.44684 2.2 0.000977516 0.999999 0.000977516
4.58604 -2.22793 2.2 0.000977516 0.999999 0.000977516
4.62024 -2.47751 2.2 0.000977516 0.999999 0.000977516
4.85394 -1.87154 2.2 0.000977516 0.999999 0.000977516
4.86482 -1.50157 2.2 0.000977516 0.999999 0.000977516
5.06511 -1.54303 2.2 0.000977516 0.999999 0.000977516
4.40066 -2.09458 2.2 0.000977516 0.999999 0.000977516
4.61686 -2.00988 2.2 0.000977516 0.999999 0.000977516
4.30816 -2.28119 2.2 0.000977516 0.999999 0.000977516
4.69131 -1.67874 2.2 0.000977516 0.999999 0.000977516
4.44184 -1.8777 2.2 0.000977516 0.999999 0.000977516
4.47809 -1.52162 2.2 0.000977516 0.999999 0.000977516
4.32421 -1.69643 2.2 0.000977516 0.999999 0.000977516
5.24046 -2.5 1.22569 0.000977516 0.000977516 0.999999
5.18325 -2.5 1.4193 0.000977516 0.000977516 0.999999
4.97703 -2.5 1.30005 0.000977516 0.000977516 0.999999
5.25184 -2.5 1.65148 0.000977516 0.000977516 0.999999
4.9218 -2.5 1.59382 0.000977516 0.000977516 0.999999
4.80335 -2.5 1.4136 0.000977516 0.000977516 0.999999
5.05913 -2.5 1.95132 0.000977516 0.000977516 0.999999
4.91467 -2.5 1.79616 0.000977516 0.000977516 0.999999
5.299 -2.5 1.90697 0.000977516 0.000977516 0.999999
5.29991 -2.5 2.10769 0.000977516 0.000977516 0.999999
4.56228 -2.5 1.43272 0.000977516 0.000977516 0.999999
4.71592 -2.5 1.60464 0.000977516 0.000977516 0.999999
4.80525 -2.5 1.96758 0.000977516 0.000977516 0.999999
4.31571 -2.5 1.41796 0.000977516 0.000977516 0.999999
4.52718 -2.5 1.67625 0.000977516 0.000977516 0.999999
4.30729 -2.5 1.67311 0.000977516 0.000977516 0.999999
4.61577 -2.5 1.86115 0.000977516 0.000977516 0.999999
4.31934 -2.5 2.01586 0.000977516 0.000977516 0.999999
5.29894 -2.21025 1.2 0.000977516 -0.999999 0.000977516
5.09095 -2.3645 1.2 0.000977516 -0.999999 0.000977516
5.3 -1.83256 1.6498 0.999999 0.000977516 0.000977516
5.3 -1.91753 1.41942 0.999999 0.000977516 0.000977516
5.3 -1.50589 1.99199 0.999999 0.000977516 0.000977516
5.3 -1.73717 1.86468 0.999999 0.000977516 0.000977516
5.3 -2.15514 1.50238 0.999999 0.000977516 0.000977516
5.3 -2.32322 1.37086 0.999999 0.000977516 0.000977516
5.3 -2.03244 1.66446 0.999999 0.000977516 0.000977516
5.3 -1.98872 1.94604 0.999999 0.000977516 0.000977516
5.3 -2.29511 1.67251 0.999999 0.000977516 0.000977516
5.3 -2.26407 1.89635 0.999999 0.000977516 0.000977516
5.3 -2.2843 2.0993 0.999999 0.000977516 0.000977516
4.48672 -1.5 1.41136 0.000977516 0.000977516 -0.999999
4.33125 -1.5 1.60968 0.000977516 0.000977516 -0.999999
4.74445 -1.5 1.48604 0.000977516 0.000977516 -0.999999
4.61766 -1.5 1.65526 0.000977516 0.000977516 -0.999999
4.47316 -1.5 1.88682 0.000977516 0.000977516 -0.999999
4.30696 -1.5 2.07391 0.000977516 0.000977516 -0.999999
4.96289 -1.5 1.40065 0.000977516 0.000977516 -0.999999
4.8185 -1.5 1.6765 0.000977516 0.000977516 -0.999999
4.6985 -1.5 1.98549 0.000977516 0.000977516 -0.999999
5.125 -1.5 1.53305 0.000977516 0.000977516 -0.999999
5.01331 -1.5 1.94345 0.000977516 0.000977516 -0.999999
5.05695 -1.5 1.7391 0.000977516 0.000977516 -0.999999
4.3 -2.19587 1.38676 -0.999999 0.000977516 0.000977516
4.3 -2.34366 1.5434 -0.999999 0.000977516 0.000977516
4.3 -2.0415 1.68536 -0.999999 0.000977516 0.000977516
4.3 -2.00861 1.45926 -0.999999 0.000977516 0.000977516
4.3 -2.30819 1.85294 -0.999999 0.000977516 0.000977516
4.3 -1.76782 1.4409 -0.999999 0.000977516 0.000977516
4.3 -2.09107 2.02613 -0.999999 0.000977516 0.000977516
4.3 -1.73917 1.66175 -0.999999 0.000977516 0.000977516
4.3 -1.572 1.39804 -0.999999 0.000977516 0.000977516
4.3 -1.84156 1.95103 -0.999999 0.000977516 0.000977516
4.3 -1.65051 1.84906 -0.999999 0.000977516 0.000977516
5.2745 2.45472 1.2 0.000977516 -0.999999 0.000977516
5.27777 2.65525 1.2 0.000977516 -0.999999 0.000977516
5.07972 2.32255 1.2 0.000977516 -0.999999 0.000977516
5.27214 2.25185 1.2 0.000977516 -0.999999 0.000977516
4.88142 2.21576 1.2 0.000977516 -0.999999 0.000977516
4.95367 2.57017 1.2 0.000977516 -0.999999 0.000977516
4.81911 2.4149 1.2 0.000977516 -0.999999 0.000977516
4.60476 2.31604 1.2 0.000977516 -0.999999 0.000977516
4.71105 2.59336 1.2 0.000977516 -0.999999 0.000977516
4.40281 2.23825 1.2 0.000977516 -0.999999 0.000977516
5.19585 2.85931 1.2 0.000977516 -0.999999 0.000977516
5.29769 3.10029 1.2 0.000977516 -0.999999 0.000977516
4.97412 2.78917 1.2 0.000977516 -0.999999 0.000977516
4.37627 2.60057 1.2 0.000977516 -0.999999 0.000977516
4.3042 2.41345 1.2 0.000977516 -0.999999 0.000977516
4.83553 3.13368 1.2 0.000977516 -0.999999 0.000977516
5.04283 3.0575 1.2 0.000977516 -0.999999 0.000977516
4.80275 2.92943 1.2 0.000977516 -0.999999 0.000977516
4.51701 2.80622 1.2 0.000977516 -0.999999 0.000977516
4.60341 3.00301 1.2 0.000977516 -0.999999 0.000977516
4.36444 3.19472 1.2 0.000977516 -0.999999 0.000977516
4.33875 2.97866 1.2 0.000977516 -0.999999 0.000977516
4.56843 3.19994 1.2 0.000977516 -0.999999 0.000977516
5.24992 2.36741 2.2 0.000977516 0.999999 0.000977516
5.00132 2.29928 2.2 0.000977516 0.999999 0.000977516
5.27651 2.67289 2.2 0.000977516 0.999999 0.000977516
4.80833 2.20624 2.2 0.000977516 0.999999 0.000977516
5.13238 2.53012 2.2 0.000977516 0.999999 0.000977516
4.96573 2.6657 2.2 0.000977516 0.999999 0.000977516
4.84879 2.47745 2.2 0.000977516 0.999999 0.000977516
5.07536 2.84164 2.2 0.000977516 0.999999 0.000977516
5.25057 3.03046 2.2 0.000977516 0.999999 0.000977516
4.60685 2.44403 2.2 0.000977516 0.999999 0.000977516
4.41774 2.23425 2.2 0.000977516 0.999999 0.000977516
4.76446 2.66274 2.2 0.000977516 0.999999 0.000977516
5.00341 3.1107 2.2 0.000977516 0.999999 0.000977516
4.80609 3.1718 2.2 0.000977516 0.999999 0.000977516
4.82305 2.9424 2.2 0.000977516 0.999999 0.000977516
4.31264 2.68105 2.2 0.000977516 0.999999 0.000977516
4.34486 2.45999 2.2 0.000977516 0.999999 0.000977516
4.52489 2.69506 2.2 0.000977516 0.999999 0.000977516
4.52576 2.91856 2.2 0.000977516 0.999999 0.000977516
4.5286 3.14691 2.2 0.000977516 0.999999 0.000977516
4.32745 2.99839 2.2 0.000977516 0.999999 0.000977516
4.30335 3.19871 2.2 0.000977516 0.999999 0.000977516
5.21428 2.2 1.38925 0.000977516 0.000977516 0.999999
5.29825 2.2 1.62097 0.000977516 0.000977516 0.999999
5.00816 2.2 1.37518 0.000977516 0.000977516 0.999999
5.03836 2.2 1.69556 0.000977516 0.000977516 0.999999
4.89028 2.2 1.54872 0.000977516 0.000977516 0.999999
5.13981 2.2 1.90818 0.000977516 0.000977516 0.999999
5.28715 2.2 2.07239 0.000977516 0.000977516 0.999999
4.69771 2.2 1.3511 0.000977516 0.000977516 0.999999
4.49502 2.2 1.38807 0.000977516 0.000977516 0.999999
4.66551 2.2 1.56392 0.000977516 0.000977516 0.999999
4.91957 2.2 1.88324 0.000977516 0.000977516 0.999999
4.30006 2.2 1.62768 0.000977516 0.000977516 0.999999
4.49634 2.2 1.69732 0.000977516 0.000977516 0.999999
4.70781 2.2 1.77571 0.000977516 0.000977516 0.999999
4.64969 2.2 2.00454 0.000977516 0.000977516 0.999999
4.42107 2.2 1.97274 0.000977516 0.000977516 0.999999
5.3 2.94489 1.35624 0.999999 0.000977516 0.000977516
5.3 3.15005 1.52951 0.999999 0.000977516 0.000977516
5.3 2.82831 1.67724 0.999999 0.000977516 0.000977516
5.3 2.72985 1.42384 0.999999 0.000977516 0.000977516
5.3 3.04231 1.69852 0.999999 0.000977516 0.000977516
5.3 3.03518 1.97775 0.999999 0.000977516 0.000977516
5.3 3.19779 1.85334 0.999999 0.000977516 0.000977516
5.3 3.19899 2.10202 0.999999 0.000977516 0.000977516
5.3 2.53131 1.46037 0.999999 0.000977516 0.000977516
5.3 2.83749 2.07845 0.999999 0.000977516 0.000977516
5.3 2.70424 1.9205 0.999999 0.000977516 0.000977516
5.3 2.60683 1.68895 0.999999 0.000977516 0.000977516
5.3 2.40245 1.63752 0.999999 0.000977516 0.000977516
5.3 2.48222 1.8773 0.999999 0.000977516 0.000977516
5.3 2.28385 1.81826 0.999999 0.000977516 0.000977516
5.3 2.51719 2.07513 0.999999 0.000977516 0.000977516
4.34286 3.2 1.50099 0.000977516 0.000977516 -0.999999
4.55702 3.2 1.42527 0.000977516 0.000977516 -0.999999
4.30084 3.2 1.69777 0.000977516 0.000977516 -0.999999
4.68931 3.2 1.62825 0.000977516 0.000977516 -0.999999
4.76367 3.2 1.4228 0.000977516 0.000977516 -0.999999
4.39741 3.2 1.88713 0.000977516 0.000977516 -0.999999
4.62216 3.2 1.82851 0.000977516 0.000977516 -0.999999
5.02457 3.2 1.39537 0.000977516 0.000977516 -0.999999
4.90415 3.2 1.5671 0.000977516 0.000977516 -0.999999
4.71945 3.2 2.015 0.000977516 0.000977516 -0.999999
5.11409 3.2 1.60581 0.000977516 0.000977516 -0.999999
4.93624 3.2 1.96923 0.000977516 0.000977516 -0.999999
5.06895 3.2 1.81605 0.000977516 0.000977516 -0.999999
4.84962 3.2 1.76838 0.000977516 0.000977516 -0.999999
4.3 2.46176 1.41371 -0.999999 0.000977516 0.000977516
4.3 2.23835 1.42399 -0.999999 0.000977516 0.000977516
4.3 2.66151 1.52459 -0.999999 0.000977516 0.000977516
4.3 2.4694 1.6606 -0.999999 0.000977516 0.000977516
4.3 2.37895 1.86878 -0.999999 0.000977516 0.000977516
4.3 2.66279 1.73706 -0.999999 0.000977516 0.000977516
4.3 2.87567 1.44617 -0.999999 0.000977516 0.000977516
4.3 2.77167 1.2706 -0.999999 0.000977516 0.000977516
4.3 2.68237 1.94646 -0.999999 0.000977516 0.000977516
4.3 2.87452 1.65474 -0.999999 0.000977516 0.000977516
4.3 2.9607 1.86516 -0.999999 0.000977516 0.000977516
4.3 2.84095 2.07439 -0.999999 0.000977516 0.000977516
4.3 3.0892 2.02282 -0.999999 0.000977516 0.000977516
9.76202 1.88607 3.86252 0.000977516 0.000977516 0.999999
10.3297 1.88607 3.33353 0.000977516 0.000977516 0.999999
9.89593 1.88607 3.27965 0.000977516 0.000977516 0.999999
9.96144 1.88607 3.81726 0.000977516 0.000977516 0.999999
9.77154 1.88607 3.5955 0.000977516 0.000977516 0.999999
10.031 1.88607 3.60822 0.000977516 0.000977516 0.999999
10.1278 1.88607 3.33379 0.000977516 0.000977516 0.999999
9.65292 1.88607 3.18871 0.000977516 0.000977516 0.999999
10.5223 1.88607 3.16354 0.000977516 0.000977516 0.999999
9.66902 1.88607 3.41135 0.000977516 0.000977516 0.999999
10.2184 1.88607 3.13982 0.000977516 0.000977516 0.999999
9.65677 1.88607 4.10322 0.000977516 0.000977516 0.999999
10.2329 1.88607 3.52701 0.000977516 0.000977516 0.999999
10.6413 1.88607 3.68366 0.000977516 0.000977516 0.999999
10.5021 1.88607 4.03595 0.000977516 0.000977516 0.999999
10.1589 1.88607 4.10161 0.000977516 0.000977516 0.999999
10.2615 1.88607 3.76974 0.000977516 0.000977516 0.999999
10.5869 1.88607 3.40972 0.000977516 0.000977516 0.999999
10.4342 1.88607 3.63814 0.000977516 0.000977516 0.999999
9.92982 1.88607 4.02864 0.000977516 0.000977516 0.999999
10.3096 1.88607 3.96688 0.000977516 0.000977516 0.999999
10.4618 1.88607 3.8368 0.000977516 0.000977516 0.999999
10.6518 1.88607 3.90032 0.000977516 0.000977516 0.999999
7.28749 -0.813935 3.08904 0.000977516 0.000977516 -0.999999
7.36294 -0.813935 2.86745 0.000977516 0.000977516 -0.999999
7.01194 -0.813935 3.23011 0.000977516 0.000977516 -0.999999
7.04503 -0.813935 2.53461 0.000977516 0.000977516 -0.999999
7.122 -0.813935 2.72773 0.000977516 0.000977516 -0.999999
7.69033 -0.813934 3.1659 0.000977516 0.000977516 -0.999999
6.99844 -0.813935 2.90278 0.000977516 0.000977516 -0.999999
6.95706 -0.813935 2.28854 0.000977516 0.000977516 -0.999999
7.30293 -0.813935 2.60864 0.000977516 0.000977516 -0.999999
7.50803 -0.813934 3.06275 0.000977516 0.000977516 -0.999999
7.92674 -0.813934 3.22507 0.000977516 0.000977516 -0.999999
7.56331 -0.813934 2.85057 0.000977516 0.000977516 -0.999999
7.33533 -0.813935 2.29207 0.000977516 0.000977516 -0.999999
7.86452 -0.813934 2.32915 0.000977516 0.000977516 -0.999999
7.53778 -0.813934 2.52342 0.000977516 0.000977516 -0.999999
7.78483 -0.813934 2.64712 0.000977516 0.000977516 -0.999999
7.92395 -0.813934 2.94268 0.000977516 0.000977516 -0.999999
7.53796 -0.813934 2.28054 0.000977516 0.000977516 -0.999999
7.94648 -0.813934 2.5176 0.000977516 0.000977516 -0.999999
7.14577 -0.813935 2.36111 0.000977516 0.000977516 -0.999999
7.72547 -0.813934 2.969 0.000977516 0.000977516 -0.999999
15.6 -4.64272 4.91615 -0.999999 0.000977516 0.000977516
15.6 -5.2393 4.54419 -0.999999 0.000977516 0.000977516
15.6 -4.4163 5.1519 -0.999999 0.000977516 0.000977516
15.6 -4.70253 4.60468 -0.999999 0.000977516 0.000977516
15.6 -4.46124 4.8143 -0.999999 0.000977516 0.000977516
15.6 -4.93135 4.89331 -0.999999 0.000977516 0.000977516
15.6 -4.94428 4.56274 -0.999999 0.000977516 0.000977516
15.6 -4.79535 5.09673 -0.999999 0.000977516 0.000977516
15.6 -4.55741 5.33535 -0.999999 0.000977516 0.000977516
15.6 -5.10955 4.74445 -0.999999 0.000977516 0.000977516
15.6 -4.46116 4.53989 -0.999999 0.000977516 0.000977516
15.6 -4.41069 5.48845 -0.999999 0.000977516 0.000977516
15.6 -5.14248 5.37009 -0.999999 0.000977516 0.000977516
15.6 -5.08388 5.11639 -0.999999 0.000977516 0.000977516
15.6 -5.32651 4.92643 -0.999999 0.000977516 0.000977516
15.6 -4.81854 5.30684 -0.999999 0.000977516 0.000977516
15.6 -5.37223 5.22386 -0.999999 0.000977516 0.000977516
15.6 -5.39779 5.48519 -0.999999 0.000977516 0.000977516
15.6 -5.3989 4.67101 -0.999999 0.000977516 0.000977516
15.6 -4.70096 5.47851 -0.999999 0.000977516 0.000977516
15.6 -4.95025 5.47834 -0.999999 0.000977516 0.000977516
12.9 -1.8952 4.958 0.999999 0.000977516 0.000977516
12.9 -1.71275 4.67537 0.999999 0.000977516 0.000977516
12.9 -2.02842 5.23323 0.999999 0.000977516 0.000977516
12.9 -1.73791 5.25676 0.999999 0.000977516 0.000977516
12.9 -2.56742 5.459 0.999999 0.000977516 0.000977516
12.9 -2.37061 5.41853 0.999999 0.000977516 0.000977516
12.9 -2.10575 5.48214 0.999999 0.000977516 0.000977516
12.9 -1.92748 4.73853 0.999999 0.000977516 0.000977516
12.9 -2.23626 5.17105 0.999999 0.000977516 0.000977516
12.9 -2.09736 4.98938 0.999999 0.000977516 0.000977516
12.9 -1.83306 5.4447 0.999999 0.000977516 0.000977516
12.9 -1.70115 5.02942 0.999999 0.000977516 0.000977516
12.9 -2.35944 4.99383 0.999999 0.000977516 0.000977516
12.9 -2.47683 4.68959 0.999999 0.000977516 0.000977516
12.9 -2.28305 4.61911 0.999999 0.000977516 0.000977516
12.9 -2.62017 5.16412 0.999999 0.000977516 0.000977516
12.9 -2.56448 4.50786 0.999999 0.000977516 0.000977516
12.9 -1.86266 4.50086 0.999999 0.000977516 0.000977516
12.9 -2.69666 4.81712 0.999999 0.000977516 0.000977516
12.9 -2.1497 4.79425 0.999999 0.000977516 0.000977516
12.9 -2.0844 4.52474 0.999999 0.000977516 0.000977516
12.9 -2.56096 4.96957 0.999999 0.000977516 0.000977516
12.9 -2.42882 5.22636 0.999999 0.000977516 0.000977516
12.9 -9.98301 4.78496 0.999999 0.000977516 0.000977516
12.9 -10.027 4.99956 0.999999 0.000977516 0.000977516
12.9 -10.1613 5.29587 0.999999 0.000977516 0.000977516
12.9 -10.1786 4.5936 0.999999 0.000977516 0.000977516
12.9 -9.70687 4.71147 0.999999 0.000977516 0.000977516
12.9 -9.42737 4.66357 0.999999 0.000977516 0.000977516
12.9 -9.80025 5.08673 0.999999 0.000977516 0.000977516
12.9 -9.67362 4.91188 0.999999 0.000977516 0.000977516
12.9 -9.84488 4.50789 0.999999 0.000977516 0.000977516
12.9 -10.1894 4.82983 0.999999 0.000977516 0.000977516
12.9 -9.28174 4.50497 0.999999 0.000977516 0.000977516
12.9 -9.97344 5.21643 0.999999 0.000977516 0.000977516
12.9 -9.60683 4.52605 0.999999 0.000977516 0.000977516
12.9 -10.1988 5.49786 0.999999 0.000977516 0.000977516
12.9 -9.3094 5.35574 0.999999 0.000977516 0.000977516
12.9 -9.60939 5.21568 0.999999 0.000977516 0.000977516
12.9 -9.25265 4.82831 0.999999 0.000977516 0.000977516
12.9 -9.31415 5.08068 0.999999 0.000977516 0.000977516
12.9 -9.47255 4.91501 0.999999 0.000977516 0.000977516
12.9 -9.89242 5.44505 0.999999 0.000977516 0.000977516
12.9 -9.61733 5.47609 0.999999 0.000977516 0.000977516
16.4246 -11.7 5.13993 0.000977516 0.000977516 -0.999999
16.5397 -11.7 5.38371 0.000977516 0.000977516 -0.999999
16.651 -11.7 5.10489 0.000977516 0.000977516 -0.999999
16.7931 -11.7 5.44829 0.000977516 0.000977516 -0.999999
17.1107 -11.7 5.48508 0.000977516 0.000977516 -0.999999
16.3461 -11.7 4.75177 0.000977516 0.000977516 -0.999999
16.493 -11.7 4.92656 0.000977516 0.000977516 -0.999999
16.286 -11.7 5.45435 0.000977516 0.000977516 -0.999999
16.8416 -11.7 5.22027 0.000977516 0.000977516 -0.999999
16.226 -11.7 4.99874 0.000977516 0.000977516 -0.999999
16.228 -11.7 5.232 0.000977516 0.000977516 -0.999999
16.2041 -11.7 4.53617 0.000977516 0.000977516 -0.999999
17.1437 -11.7 4.85621 0.000977516 0.000977516 -0.999999
17.1148 -11.7 4.57551 0.000977516 0.000977516 -0.999999
16.7192 -11.7 4.6294 0.000977516 0.000977516 -0.999999
16.5419 -11.7 4.53568 0.000977516 0.000977516 -0.999999
17.0889 -11.7 5.05931 0.000977516 0.000977516 -0.999999
16.8306 -11.7 5.00075 0.000977516 0.000977516 -0.999999
17.1517 -11.7 5.27318 0.000977516 0.000977516 -0.999999
16.9149 -11.7 4.81897 0.000977516 0.000977516 -0.999999
16.88 -11.7 4.50344 0.000977516 0.000977516 -0.999999
16.7013 -11.7 4.8327 0.000977516 0.000977516 -0.999999
23.3425 -11.7 4.70225 0.000977516 0.000977516 -0.999999
23.3458 -11.7 5.22017 0.000977516 0.000977516 -0.999999
22.9168 -11.7 4.74577 0.000977516 0.000977516 -0.999999
23.3971 -11.7 4.94696 0.000977516 0.000977516 -0.999999
23.1501 -11.7 4.60375 0.000977516 0.000977516 -0.999999
23.0983 -11.7 4.92581 0.000977516 0.000977516 -0.999999
22.7976 -11.7 4.5745 0.000977516 0.000977516 -0.999999
23.4442 -11.7 4.50889 0.000977516 0.000977516 -0.999999
22.578 -11.7 4.52326 0.000977516 0.000977516 -0.999999
23.4488 -11.7 5.42541 0.000977516 0.000977516 -0.999999
23.1587 -11.7 5.14472 0.000977516 0.000977516 -0.999999
22.5559 -11.7 5.10296 0.000977516 0.000977516 -0.999999
22.894 -11.7 5.03624 0.000977516 0.000977516 -0.999999
22.5929 -11.7 4.81244 0.000977516 0.000977516 -0.999999
22.6798 -11.7 5.48731 0.000977516 0.000977516 -0.999999
23.1419 -11.7 5.39996 0.000977516 0.000977516 -0.999999
22.737 -11.7 5.27868 0.000977516 0.000977516 -0.999999
22.906 -11.7 5.43988 0.000977516 0.000977516 -0.999999
22.5106 -11.7 5.32047 0.000977516 0.000977516 -0.999999
22.9871 -11.7 5.25255 0.000977516 0.000977516 -0.999999
31.378 -11.7 5.20656 0.000977516 0.000977516 -0.999999
31.464 -11.7 5.43221 0.000977516 0.000977516 -0.999999
30.7724 -11.7 4.96299 0.000977516 0.000977516 -0.999999
31.033 -11.7 4.97704 0.000977516 0.000977516 -0.999999
30.7831 -11.7 5.47669 0.000977516 0.000977516 -0.999999
30.8939 -11.7 4.76404 0.000977516 0.000977516 -0.999999
31.1257 -11.7 5.19064 0.000977516 0.000977516 -0.999999
30.9949 -11.7 5.48179 0.000977516 0.000977516 -0.999999
30.7042 -11.7 4.54168 0.000977516 0.000977516 -0.999999
31.2571 -11.7 5.47387 0.000977516 0.000977516 -0.999999
31.6571 -11.7 5.49471 0.000977516 0.000977516 -0.999999
30.8606 -11.7 5.15544 0.000977516 0.000977516 -0.999999
30.7004 -11.7 5.28509 0.000977516 0.000977516 -0.999999
31.5196 -11.7 4.85555 0.000977516 0.000977516 -0.999999
31.1563 -11.7 4.77307 0.000977516 0.000977516 -0.999999
31.475 -11.7 4.55139 0.000977516 0.000977516 -0.999999
30.9802 -11.7 4.55833 0.000977516 0.000977516 -0.999999
31.2525 -11.7 4.97219 0.000977516 0.000977516 -0.999999
31.6949 -11.7 5.16628 0.000977516 0.000977516 -0.999999
31.2449 -11.7 4.53153 0.000977516 0.000977516 -0.999999
31.6975 -11.7 4.5202 0.000977516 0.000977516 -0.999999
31.3589 -11.7 4.7319 0.000977516 0.000977516 -0.999999
31.6923 -11.7 4.74284 0.000977516 0.000977516 -0.999999
31.6951 -11.7 4.96369 0.000977516 0.000977516 -0.999999
31.5176 -11.7 5.06316 0.000977516 0.000977516 -0.999999
20.6807 -8.9 4.52897 0.000977516 0.000977516 0.999999
21.1708 -8.9 4.54259 0.000977516 0.000977516 0.999999
20.9516 -8.9 4.81706 0.000977516 0.000977516 0.999999
20.3008 -8.9 5.28314 0.000977516 0.000977516 0.999999
20.7559 -8.9 4.73668 0.000977516 0.000977516 0.999999
20.3004 -8.9 4.54422 0.000977516 0.000977516 0.999999
20.4978 -8.9 4.7595 0.000977516 0.000977516 0.999999
20.4934 -8.9 4.98589 0.000977516 0.000977516 0.999999
20.9591 -8.9 4.59698 0.000977516 0.000977516 0.999999
20.7603 -8.9 5.0254 0.000977516 0.000977516 0.999999
20.5631 -8.9 5.21684 0.000977516 0.000977516 0.999999
20.3105 -8.9 4.83515 0.000977516 0.000977516 0.999999
20.3043 -8.9 5.06987 0.000977516 0.000977516 0.999999
20.3077 -8.9 5.49044 0.000977516 0.000977516 0.999999
21.1708 -8.9 5.32169 0.000977516 0.000977516 0.999999
20.8027 -8.9 5.46926 0.000977516 0.000977516 0.999999
20.7779 -8.9 5.26798 0.000977516 0.000977516 0.999999
21.0597 -8.9 5.00663 0.000977516 0.000977516 0.999999
20.567 -8.9 5.48312 0.000977516 0.000977516 0.999999
21.2478 -8.9 4.7601 0.000977516 0.000977516 0.999999
20.9847 -8.9 5.21472 0.000977516 0.000977516 0.999999
21.2639 -8.9 5.09826 0.000977516 0.000977516 0.999999
21.2703 -8.9 5.49933 0.000977516 0.000977516 0.999999
21.0122 -8.9 5.49374 0.000977516 0.000977516 0.999999
27.2986 -8.9 5.40868 0.000977516 0.000977516 0.999999
28.0612 -8.9 5.00451 0.000977516 0.000977516 0.999999
27.7329 -8.9 4.98981 0.000977516 0.000977516 0.999999
28.0917 -8.9 4.50875 0.000977516 0.000977516 0.999999
27.8039 -8.9 5.48054 0.000977516 0.000977516 0.999999
27.6871 -8.9 5.29144 0.000977516 0.000977516 0.999999
27.4817 -8.9 5.32097 0.000977516 0.000977516 0.999999
28.0821 -8.9 5.31047 0.000977516 0.000977516 0.999999
27.9311 -8.9 4.82221 0.000977516 0.000977516 0.999999
27.9317 -8.9 5.16939 0.000977516 0.000977516 0.999999
27.4902 -8.9 5.11341 0.000977516 0.000977516 0.999999
27.6006 -8.9 5.48235 0.000977516 0.000977516 0.999999
27.1148 -8.9 5.49769 0.000977516 0.000977516 0.999999
28.0093 -8.9 5.49719 0.000977516 0.000977516 0.999999
28.099 -8.9 4.71184 0.000977516 0.000977516 0.999999
27.1791 -8.9 4.506 0.000977516 0.000977516 0.999999
27.5815 -8.9 4.72918 0.000977516 0.000977516 0.999999
27.1495 -8.9 4.98527 0.000977516 0.000977516 0.999999
27.1611 -8.9 4.73735 0.000977516 0.000977516 0.999999
27.7208 -8.9 4.51085 0.000977516 0.000977516 0.999999
27.4287 -8.9 4.88365 0.000977516 0.000977516 0.999999
27.2886 -8.9 5.19784 0.000977516 0.000977516 0.999999
27.3995 -8.9 4.59837 0.000977516 0.000977516 0.999999
27.9092 -8.9 4.61561 0.000977516 0.000977516 0.999999
27.1008 -8.9 5.2714 0.000977516 0.000977516 0.999999
34.8165 -8.9 4.53368 0.000977516 0.000977516 0.999999
34.6122 -8.9 4.5489 0.000977516 0.000977516 0.999999
34.0659 -8.9 4.85241 0.000977516 0.000977516 0.999999
33.908 -8.9 5.08136 0.000977516 0.000977516 0.999999
34.2893 -8.9 5.08725 0.000977516 0.000977516 0.999999
34.1512 -8.9 4.60638 0.000977516 0.000977516 0.999999
34.4923 -8.9 4.86517 0.000977516 0.000977516 0.999999
34.154 -8.9 5.2364 0.000977516 0.000977516 0.999999
33.954 -8.9 5.33335 0.000977516 0.000977516 0.999999
34.3917 -8.9 4.64979 0.000977516 0.000977516 0.999999
33.912 -8.9 4.71564 0.000977516 0.000977516 0.999999
34.28 -8.9 4.83416 0.000977516 0.000977516 0.999999
33.9045 -8.9 4.50694 0.000977516 0.000977516 0.999999
34.6534 -8.9 4.7462 0.000977516 0.000977516 0.999999
34.3666 -8.9 5.30577 0.000977516 0.000977516 0.999999
34.6586 -8.9 5.4208 0.000977516 0.000977516 0.999999
34.8541 -8.9 5.47377 0.000977516 0.000977516 0.999999
34.7456 -8.9 5.05747 0.000977516 0.000977516 0.999999
34.8532 -8.9 4.82081 0.000977516 0.000977516 0.999999
34.8715 -8.9 5.24758 0.000977516 0.000977516 0.999999
34.5426 -8.9 5.1305 0.000977516 0.000977516 0.999999
34.4316 -8.9 5.49901 0.000977516 0.000977516 0.999999
34.1602 -8.9 5.49438 0.000977516 0.000977516 0.999999
39.2534 -11.7 5.15359 0.000977516 0.000977516 -0.999999
39.4058 -11.7 4.88269 0.000977516 0.000977516 -0.999999
39.7644 -11.7 5.37712 0.000977516 0.000977516 -0.999999
39.2959 -11.7 4.70683 0.000977516 0.000977516 -0.999999
39.7205 -11.7 5.15398 0.000977516 0.000977516 -0.999999
39.9923 -11.7 5.48536 0.000977516 0.000977516 -0.999999
39.2346 -11.7 5.42196 0.000977516 0.000977516 -0.999999
39.1339 -11.7 4.89252 0.000977516 0.000977516 -0.999999
39.4895 -11.7 5.15836 0.000977516 0.000977516 -0.999999
39.529 -11.7 5.4568 0.000977516 0.000977516 -0.999999
39.1023 -11.7 4.52845 0.000977516 0.000977516 -0.999999
39.5168 -11.7 4.71077 0.000977516 0.000977516 -0.999999
40.0121 -11.7 4.98128 0.000977516 0.000977516 -0.999999
40.0547 -11.7 4.51965 0.000977516 0.000977516 -0.999999
39.7939 -11.7 4.53337 0.000977516 0.000977516 -0.999999
39.6625 -11.7 4.93437 0.000977516 0.000977516 -0.999999
40.0008 -11.7 5.27193 0.000977516 0.000977516 -0.999999
39.8754 -11.7 4.8178 0.000977516 0.000977516 -0.999999
39.5787 -11.7 4.50124 0.000977516 0.000977516 -0.999999
40.0902 -11.7 4.74737 0.000977516 0.000977516 -0.999999
39.306 -11.7 4.5028 0.000977516 0.000977516 -0.999999
37.8 -7.19655 4.51319 0.999999 0.000977516 0.000977516
37.8 -7.93477 4.79034 0.999999 0.000977516 0.000977516
37.8 -7.94559 5.09337 0.999999 0.000977516 0.000977516
37.8 -7.63459 4.76538 0.999999 0.000977516 0.000977516
37.8 -7.96956 5.31781 0.999999 0.000977516 0.000977516
37.8 -7.75505 5.19126 0.999999 0.000977516 0.000977516
37.8 -7.32722 4.78548 0.999999 0.000977516 0.000977516
37.8 -7.4557 4.61601 0.999999 0.000977516 0.000977516
37.8 -7.85497 4.52624 0.999999 0.000977516 0.000977516
37.8 -7.57894 4.98013 0.999999 0.000977516 0.000977516
37.8 -7.65046 4.56567 0.999999 0.000977516 0.000977516
37.8 -7.7865 4.9494 0.999999 0.000977516 0.000977516
37.8 -7.25188 5.40579 0.999999 0.000977516 0.000977516
37.8 -7.33452 4.98893 0.999999 0.000977516 0.000977516
37.8 -7.01593 5.45966 0.999999 0.000977516 0.000977516
37.8 -7.14667 5.11873 0.999999 0.000977516 0.000977516
37.8 -7.42194 5.20476 0.999999 0.000977516 0.000977516
37.8 -7.02233 4.83984 0.999999 0.000977516 0.000977516
37.8 -7.62222 5.42076 0.999999 0.000977516 0.000977516
37.8 -7.82057 5.48932 0.999999 0.000977516 0.000977516
37.8 -7.00049 4.58151 0.999999 0.000977516 0.000977516
37.8 -7.43509 5.4976 0.999999 0.000977516 0.000977516
37.8 -7.00028 5.25761 0.999999 0.000977516 0.000977516
37.8 -3.42187 5.494 0.999999 0.000977516 0.000977516
37.8 -2.72993 5.11543 0.999999 0.000977516 0.000977516
37.8 -3.05668 5.2759 0.999999 0.000977516 0.000977516
37.8 -2.60852 4.69814 0.999999 0.000977516 0.000977516
37.8 -2.81501 5.42019 0.999999 0.000977516 0.000977516
37.8 -3.25662 5.36621 0.999999 0.000977516 0.000977516
37.8 -2.93719 4.97323 0.999999 0.000977516 0.000977516
37.8 -2.62174 5.29279 0.999999 0.000977516 0.000977516
37.8 -2.81327 4.75944 0.999999 0.000977516 0.000977516
37.8 -2.62895 4.89765 0.999999 0.000977516 0.000977516
37.8 -3.24159 5.1551 0.999999 0.000977516 0.000977516
37.8 -3.00921 5.49904 0.999999 0.000977516 0.000977516
37.8 -2.61437 5.49475 0.999999 0.000977516 0.000977516
37.8 -3.27618 4.82728 0.999999 0.000977516 0.000977516
37.8 -3.52491 5.28285 0.999999 0.000977516 0.000977516
37.8 -3.02312 4.68186 0.999999 0.000977516 0.000977516
37.8 -3.44062 4.69091 0.999999 0.000977516 0.000977516
37.8 -3.22941 4.6006 0.999999 0.000977516 0.000977516
37.8 -3.57454 5.07321 0.999999 0.000977516 0.000977516
37.8 -2.67639 4.50494 0.999999 0.000977516 0.000977516
37.8 -2.89117 4.51021 0.999999 0.000977516 0.000977516
37.8 -3.46062 4.90871 0.999999 0.000977516 0.000977516
37.8 -3.58588 4.50375 0.999999 0.000977516 0.000977516
37.8 -3.14106 4.97669 0.999999 0.000977516 0.000977516
37.8 2.51555 5.2894 0.999999 0.000977516 0.000977516
37.8 2.55642 4.74684 0.999999 0.000977516 0.000977516
37.8 2.80117 4.77548 0.999999 0.000977516 0.000977516
37.8 2.73566 4.54571 0.999999 0.000977516 0.000977516
37.8 2.63088 5.03921 0.999999 0.000977516 0.000977516
37.8 3.00824 4.57291 0.999999 0.000977516 0.000977516
37.8 2.92636 4.94563 0.999999 0.000977516 0.000977516
37.8 2.41894 5.00481 0.999999 0.000977516 0.000977516
37.8 3.24715 4.6359 0.999999 0.000977516 0.000977516
37.8 3.06537 4.78878 0.999999 0.000977516 0.000977516
37.8 2.44927 4.52196 0.999999 0.000977516 0.000977516
37.8 2.41496 5.47606 0.999999 0.000977516 0.000977516
37.8 3.39729 4.50245 0.999999 0.000977516 0.000977516
37.8 3.06585 5.3412 0.999999 0.000977516 0.000977516
37.8 3.17418 5.07472 0.999999 0.000977516 0.000977516
37.8 3.35377 5.16766 0.999999 0.000977516 0.000977516
37.8 3.36263 5.43095 0.999999 0.000977516 0.000977516
37.8 3.3358 4.93755 0.999999 0.000977516 0.000977516
37.8 2.85058 5.31353 0.999999 0.000977516 0.000977516
37.8 2.73251 5.49996 0.999999 0.000977516 0.000977516
37.8 2.93466 5.49961 0.999999 0.000977516 0.000977516
37.8 2.97723 5.14057 0.999999 0.000977516 0.000977516
37.8 6.47437 5.41939 0.999999 0.000977516 0.000977516
37.8 6.95298 5.39563 0.999999 0.000977516 0.000977516
37.8 6.73633 5.16992 0.999999 0.000977516 0.000977516
37.8 6.13178 5.47119 0.999999 0.000977516 0.000977516
37.8 6.56052 5.06937 0.999999 0.000977516 0.000977516
37.8 6.92486 5.03466 0.999999 0.000977516 0.000977516
37.8 6.95109 4.69637 0.999999 0.000977516 0.000977516
37.8 6.78424 4.8608 0.999999 0.000977516 0.000977516
37.8 7.09285 4.90421 0.999999 0.000977516 0.000977516
37.8 6.76769 5.48871 0.999999 0.000977516 0.000977516
37.8 7.0965 5.21896 0.999999 0.000977516 0.000977516
37.8 7.09326 4.544 0.999999 0.000977516 0.000977516
37.8 6.28678 5.33455 0.999999 0.000977516 0.000977516
37.8 6.46997 4.67217 0.999999 0.000977516 0.000977516
37.8 6.21083 4.664 0.999999 0.000977516 0.000977516
37.8 6.7147 4.55029 0.999999 0.000977516 0.000977516
37.8 6.13065 4.8766 0.999999 0.000977516 0.000977516
37.8 6.11557 5.08177 0.999999 0.000977516 0.000977516
37.8 6.35154 4.9134 0.999999 0.000977516 0.000977516
37.8 6.54916 4.86301 0.999999 0.000977516 0.000977516
37.8 6.32159 5.13228 0.999999 0.000977516 0.000977516
37.8 6.34192 4.51002 0.999999 0.000977516 0.000977516
35 -5.09187 5.16394 0.999999 0.000977516 0.000977516
35 -4.21752 4.61459 0.999999 0.000977516 0.000977516
35 -5.0135 5.38417 0.999999 0.000977516 0.000977516
35 -4.74736 5.01176 0.999999 0.000977516 0.000977516
35 -4.83754 4.60473 0.999999 0.000977516 0.000977516
35 -4.59694 4.53804 0.999999 0.000977516 0.000977516
35 -5.06198 4.89969 0.999999 0.000977516 0.000977516
35 -4.68999 4.78883 0.999999 0.000977516 0.000977516
35 -4.46737 4.85911 0.999999 0.000977516 0.000977516
35 -4.88893 5.16446 0.999999 0.000977516 0.000977516
35 -5.06741 4.53619 0.999999 0.000977516 0.000977516
35 -4.4184 4.6305 0.999999 0.000977516 0.000977516
35 -4.27866 5.15002 0.999999 0.000977516 0.000977516
35 -4.65373 5.25786 0.999999 0.000977516 0.000977516
35 -4.44649 5.47944 0.999999 0.000977516 0.000977516
35 -4.82007 5.47305 0.999999 0.000977516 0.000977516
35 -4.19426 4.91412 0.999999 0.000977516 0.000977516
35 -4.55223 5.07951 0.999999 0.000977516 0.000977516
35 -4.10127 5.43084 0.999999 0.000977516 0.000977516
35 -4.4377 5.27173 0.999999 0.000977516 0.000977516
40.6 -5.44806 4.67256 -0.999999 0.000977516 0.000977516
40.6 -5.27006 5.25665 -0.999999 0.000977516 0.000977516
40.6 -5.05584 5.291 -0.999999 0.000977516 0.000977516
40.6 -5.33661 4.89637 -0.999999 0.000977516 0.000977516
40.6 -5.56415 4.93523 -0.999999 0.000977516 0.000977516
40.6 -5.51701 5.33831 -0.999999 0.000977516 0.000977516
40.6 -5.23941 5.49684 -0.999999 0.000977516 0.000977516
40.6 -4.85729 5.25265 -0.999999 0.000977516 0.000977516
40.6 -5.12507 5.01178 -0.999999 0.000977516 0.000977516
40.6 -4.96731 5.48472 -0.999999 0.000977516 0.000977516
40.6 -4.70249 5.48543 -0.999999 0.000977516 0.000977516
40.6 -5.46473 5.13163 -0.999999 0.000977516 0.000977516
40.6 -5.59366 4.52094 -0.999999 0.000977516 0.000977516
40.6 -4.72218 4.64951 -0.999999 0.000977516 0.000977516
40.6 -4.92436 4.79757 -0.999999 0.000977516 0.000977516
40.6 -4.67575 5.11299 -0.999999 0.000977516 0.000977516
40.6 -5.00345 4.55009 -0.999999 0.000977516 0.000977516
40.6 -4.90881 5.02394 -0.999999 0.000977516 0.000977516
40.6 -4.64262 4.87965 -0.999999 0.000977516 0.000977516
40.6 -5.21638 4.63549 -0.999999 0.000977516 0.000977516
40.6 -4.60956 5.30505 -0.999999 0.000977516 0.000977516
40.6 -0.634845 5.28237 -0.999999 0.000977516 0.000977516
40.6 -0.751525 4.81852 -0.999999 0.000977516 0.000977516
40.6 -0.739906 4.57476 -0.999999 0.000977516 0.000977516
40.6 -1.36802 4.53032 -0.999999 0.000977516 0.000977516
40.6 -0.934491 4.68761 -0.999999 0.000977516 0.000977516
40.6 -0.647989 5.07187 -0.999999 0.000977516 0.000977516
40.6 -1.17618 4.67959 -0.999999 0.000977516 0.000977516
40.6 -0.947295 5.09589 -0.999999 0.000977516 0.000977516
40.6 -1.12162 4.90298 -0.999999 0.000977516 0.000977516
40.6 -1.06814 4.50058 -0.999999 0.000977516 0.000977516
40.6 -1.59402 4.50148 -0.999999 0.000977516 0.000977516
40.6 -0.60038 5.49585 -0.999999 0.000977516 0.000977516
40.6 -0.835396 5.26244 -0.999999 0.000977516 0.000977516
40.6 -1.03714 5.29741 -0.999999 0.000977516 0.000977516
40.6 -1.35394 5.27533 -0.999999 0.000977516 0.000977516
40.6 -1.35336 4.89509 -0.999999 0.000977516 0.000977516
40.6 -1.20844 5.43056 -0.999999 0.000977516 0.000977516
40.6 -1.59101 5.15412 -0.999999 0.000977516 0.000977516
40.6 -1.56251 4.93971 -0.999999 0.000977516 0.000977516
40.6 -1.5454 5.46069 -0.999999 0.000977516 0.000977516
40.6 -1.59214 4.73738 -0.999999 0.000977516 0.000977516
40.6 -1.19312 5.14785 -0.999999 0.000977516 0.000977516
40.6 -0.840701 5.46819 -0.999999 0.000977516 0.000977516
40.6 2.88907 5.16129 -0.999999 0.000977516 0.000977516
40.6 2.43407 5.38984 -0.999999 0.000977516 0.000977516
40.6 2.87765 5.39911 -0.999999 0.000977516 0.000977516
40.6 2.48802 4.90486 -0.999999 0.000977516 0.000977516
40.6 2.69449 4.87113 -0.999999 0.000977516 0.000977516
40.6 3.0577 5.29398 -0.999999 0.000977516 0.000977516
40.6 2.65706 5.2433 -0.999999 0.000977516 0.000977516
40.6 2.65398 5.46377 -0.999999 0.000977516 0.000977516
40.6 2.47449 4.6209 -0.999999 0.000977516 0.000977516
40.6 2.40783 5.15936 -0.999999 0.000977516 0.000977516
40.6 3.26944 5.47193 -0.999999 0.000977516 0.000977516
40.6 3.06827 5.49384 -0.999999 0.000977516 0.000977516
40.6 3.3748 4.88829 -0.999999 0.000977516 0.000977516
40.6 2.87077 4.62158 -0.999999 0.000977516 0.000977516
40.6 3.39357 4.63829 -0.999999 0.000977516 0.000977516
40.6 3.11066 4.6925 -0.999999 0.000977516 0.000977516
40.6 2.91195 4.88092 -0.999999 0.000977516 0.000977516
40.6 3.22523 5.10695 -0.999999 0.000977516 0.000977516
40.6 3.14058 4.90166 -0.999999 0.000977516 0.000977516
40.6 3.33566 5.28265 -0.999999 0.000977516 0.000977516
40.6 2.67092 4.51216 -0.999999 0.000977516 0.000977516
40.6 3.22926 4.51144 -0.999999 0.000977516 0.000977516
41.3693 4.3 4.77593 0.000977516 0.000977516 -0.999999
41.6067 4.3 5.06987 0.000977516 0.000977516 -0.999999
41.9744 4.3 4.83199 0.000977516 0.000977516 -0.999999
41.7608 4.3 4.67514 0.000977516 0.000977516 -0.999999
41.4615 4.3 4.5786 0.000977516 0.000977516 -0.999999
41.1663 4.3 4.52101 0.000977516 0.000977516 -0.999999
41.7372 4.3 4.89227 0.000977516 0.000977516 -0.999999
41.5717 4.3 4.76757 0.000977516 0.000977516 -0.999999
41.8908 4.3 5.03678 0.000977516 0.000977516 -0.999999
41.9525 4.3 5.41019 0.000977516 0.000977516 -0.999999
41.7783 4.3 5.23462 0.000977516 0.000977516 -0.999999
41.9801 4.3 4.59561 0.000977516 0.000977516 -0.999999
41.9899 4.3 5.21108 0.000977516 0.000977516 -0.999999
41.6508 4.3 4.50078 0.000977516 0.000977516 -0.999999
41.3055 4.3 5.0703 0.000977516 0.000977516 -0.999999
41.6839 4.3 5.47411 0.000977516 0.000977516 -0.999999
41.0991 4.3 4.88104 0.000977516 0.000977516 -0.999999
41.3604 4.3 5.46355 0.000977516 0.000977516 -0.999999
41.0008 4.3 5.14941 0.000977516 0.000977516 -0.999999
41.0424 4.3 5.40344 0.000977516 0.000977516 -0.999999
41.546 4.3 5.29351 0.000977516 0.000977516 -0.999999
41.256 4.3 5.26533 0.000977516 0.000977516 -0.999999
41.013 4.3 4.685 0.000977516 0.000977516 -0.999999
44.9808 4.3 5.27816 0.000977516 0.000977516 -0.999999
44.6753 4.3 5.23956 0.000977516 0.000977516 -0.999999
45.27 4.3 5.45281 0.000977516 0.000977516 -0.999999
44.6767 4.3 4.90834 0.000977516 0.000977516 -0.999999
44.8804 4.3 5.086 0.000977516 0.000977516 -0.999999
44.6559 4.3 4.67985 0.000977516 0.000977516 -0.999999
45.2038 4.3 5.25492 0.000977516 0.000977516 -0.999999
44.541 4.3 5.46234 0.000977516 0.000977516 -0.999999
44.7783 4.3 5.41692 0.000977516 0.000977516 -0.999999
44.526 4.3 5.06825 0.000977516 0.000977516 -0.999999
45.088 4.3 5.09056 0.000977516 0.000977516 -0.999999
45.4781 4.3 5.47844 0.000977516 0.000977516 -0.999999
44.9844 4.3 5.4992 0.000977516 0.000977516 -0.999999
44.8744 4.3 4.87776 0.000977516 0.000977516 -0.999999
44.5248 4.3 4.52863 0.000977516 0.000977516 -0.999999
44.5005 4.3 4.81006 0.000977516 0.000977516 -0.999999
45.3519 4.3 4.83095 0.000977516 0.000977516 -0.999999
45.1256 4.3 4.73341 0.000977516 0.000977516 -0.999999
45.4421 4.3 4.62138 0.000977516 0.000977516 -0.999999
44.8789 4.3 4.52134 0.000977516 0.000977516 -0.999999
45.4073 4.3 5.06537 0.000977516 0.000977516 -0.999999
45.4834 4.3 5.2587 0.000977516 0.000977516 -0.999999
45.1733 4.3 4.51435 0.000977516 0.000977516 -0.999999
49.4206 4.3 5.24257 0.000977516 0.000977516 -0.999999
49.2622 4.3 4.96907 0.000977516 0.000977516 -0.999999
49.3501 4.3 4.73489 0.000977516 0.000977516 -0.999999
48.7084 4.3 4.62196 0.000977516 0.000977516 -0.999999
49.1349 4.3 4.71441 0.000977516 0.000977516 -0.999999
49.0908 4.3 4.50241 0.000977516 0.000977516 -0.999999
49.3326 4.3 4.5018 0.000977516 0.000977516 -0.999999
49.1544 4.3 5.14733 0.000977516 0.000977516 -0.999999
48.8888 4.3 4.88454 0.000977516 0.000977516 -0.999999
49.4728 4.3 5.46283 0.000977516 0.000977516 -0.999999
49.4677 4.3 4.92416 0.000977516 0.000977516 -0.999999
48.9395 4.3 4.66153 0.000977516 0.000977516 -0.999999
48.5198 4.3 4.50136 0.000977516 0.000977516 -0.999999
48.6682 4.3 4.95308 0.000977516 0.000977516 -0.999999
48.566 4.3 5.12517 0.000977516 0.000977516 -0.999999
48.5385 4.3 4.77188 0.000977516 0.000977516 -0.999999
48.9144 4.3 5.4471 0.000977516 0.000977516 -0.999999
49.1369 4.3 5.34754 0.000977516 0.000977516 -0.999999
48.6823 4.3 5.30459 0.000977516 0.000977516 -0.999999
48.9331 4.3 5.17246 0.000977516 0.000977516 -0.999999
48.514 4.3 5.4952 0.000977516 0.000977516 -0.999999
49.2706 4.3 5.49711 0.000977516 0.000977516 -0.999999
43.7577 7.1 4.95316 0.000977516 0.000977516 0.999999
43.977 7.1 5.11547 0.000977516 0.000977516 0.999999
43.9042 7.1 4.68267 0.000977516 0.000977516 0.999999
43.5251 7.1 4.98594 0.000977516 0.000977516 0.999999
43.547 7.1 5.43649 0.000977516 0.000977516 0.999999
43.1619 7.1 5.39746 0.000977516 0.000977516 0.999999
43.9915 7.1 5.44922 0.000977516 0.000977516 0.999999
43.6652 7.1 5.21269 0.000977516 0.000977516 0.999999
43.3695 7.1 5.2817 0.000977516 0.000977516 0.999999
43.7667 7.1 5.41671 0.000977516 0.000977516 0.999999
43.9788 7.1 4.87966 0.000977516 0.000977516 0.999999
43.3443 7.1 5.49833 0.000977516 0.000977516 0.999999
44 7.1 4.50493 0.000977516 0.000977516 0.999999
43.4235 7.1 4.72948 0.000977516 0.000977516 0.999999
43.0901 7.1 4.64803 0.000977516 0.000977516 0.999999
43.6968 7.1 4.70933 0.000977516 0.000977516 0.999999
43.2392 7.1 5.05908 0.000977516 0.000977516 0.999999
43.454 7.1 4.5228 0.000977516 0.000977516 0.999999
43.0998 7.1 4.90755 0.000977516 0.000977516 0.999999
43.0075 7.1 5.09827 0.000977516 0.000977516 0.999999
43.7355 7.1 4.51034 0.000977516 0.000977516 0.999999
43.2277 7.1 4.50046 0.000977516 0.000977516 0.999999
47.1379 7.1 5.03087 0.000977516 0.000977516 0.999999
47.5398 7.1 4.57862 0.000977516 0.000977516 0.999999
47.359 7.1 4.82707 0.000977516 0.000977516 0.999999
47.0267 7.1 4.64544 0.000977516 0.000977516 0.999999
47.3337 7.1 4.62377 0.000977516 0.000977516 0.999999
47.8528 7.1 4.51068 0.000977516 0.000977516 0.999999
47.7076 7.1 4.72977 0.000977516 0.000977516 0.999999
47.4424 7.1 5.03142 0.000977516 0.000977516 0.999999
47.0148 7.1 5.45192 0.000977516 0.000977516 0.999999
47.1034 7.1 5.26286 0.000977516 0.000977516 0.999999
47.0523 7.1 4.84408 0.000977516 0.000977516 0.999999
47.5632 7.1 4.87113 0.000977516 0.000977516 0.999999
47.2979 7.1 5.18379 0.000977516 0.000977516 0.999999
47.1736 7.1 4.5013 0.000977516 0.000977516 0.999999
47.2287 7.1 5.4719 0.000977516 0.000977516 0.999999
47.9009 7.1 5.1015 0.000977516 0.000977516 0.999999
47.9879 7.1 5.31927 0.000977516 0.000977516 0.999999
47.9501 7.1 4.81666 0.000977516 0.000977516 0.999999
47.4969 7.1 5.35918 0.000977516 0.000977516 0.999999
47.7502 7.1 5.29897 0.000977516 0.000977516 0.999999
47.6754 7.1 5.04916 0.000977516 0.000977516 0.999999
47.852 7.1 5.49519 0.000977516 0.000977516 0.999999
47.6462 7.1 5.49853 0.000977516 0.000977516 0.999999
40.9113 7.1 5.0846 0.000977516 0.000977516 0.999999
40.46 7.1 5.29497 0.000977516 0.000977516 0.999999
40.6763 7.1 5.29807 0.000977516 0.000977516 0.999999
40.9853 7.1 4.69996 0.000977516 0.000977516 0.999999
40.971 7.1 5.43725 0.000977516 0.000977516 0.999999
40.6201 7.1 5.08498 0.000977516 0.000977516 0.999999
40.2345 7.1 5.37347 0.000977516 0.000977516 0.999999
40.7719 7.1 4.92988 0.000977516 0.000977516 0.999999
40.6113 7.1 5.49462 0.000977516 0.000977516 0.999999
41.031 7.1 4.90784 0.000977516 0.000977516 0.999999
41.0945 7.1 5.17005 0.000977516 0.000977516 0.999999
40.397 7.1 5.49379 0.000977516 0.000977516 0.999999
41.0997 7.1 4.52773 0.000977516 0.000977516 0.999999
40.4569 7.1 4.68236 0.000977516 0.000977516 0.999999
40.1243 7.1 4.92729 0.000977516 0.000977516 0.999999
40.2836 7.1 5.14141 0.000977516 0.000977516 0.999999
40.4053 7.1 4.93873 0.000977516 0.000977516 0.999999
40.1717 7.1 4.57543 0.000977516 0.000977516 0.999999
40.8431 7.1 4.53267 0.000977516 0.000977516 0.999999
40.3632 7.1 4.50301 0.000977516 0.000977516 0.999999
40.6818 7.1 4.68189 0.000977516 0.000977516 0.999999
40.5727 7.1 4.51154 0.000977516 0.000977516 0.999999
40.2556 7.1 4.77536 0.000977516 0.000977516 0.999999
40.1014 7.1 5.22398 0.000977516 0.000977516 0.999999
52.6 6.81411 4.52764 -0.999999 0.000977516 0.000977516
52.6 6.33045 4.71294 -0.999999 0.000977516 0.000977516
52.6 6.18445 4.52798 -0.999999 0.000977516 0.000977516
52.6 6.70398 5.09751 -0.999999 0.000977516 0.000977516
52.6 6.80937 4.87748 -0.999999 0.000977516 0.000977516
52.6 6.86644 5.3382 -0.999999 0.000977516 0.000977516
52.6 6.55488 4.64438 -0.999999 0.000977516 0.000977516
52.6 6.49689 4.85735 -0.999999 0.000977516 0.000977516
52.6 6.91197 5.07196 -0.999999 0.000977516 0.000977516
52.6 6.96569 4.71841 -0.999999 0.000977516 0.000977516
52.6 6.38758 4.51207 -0.999999 0.000977516 0.000977516
52.6 6.99777 5.49366 -0.999999 0.000977516 0.000977516
52.6 6.04912 5.35695 -0.999999 0.000977516 0.000977516
52.6 6.0062 5.10003 -0.999999 0.000977516 0.000977516
52.6 6.30038 5.10436 -0.999999 0.000977516 0.000977516
52.6 6.5777 5.39705 -0.999999 0.000977516 0.000977516
52.6 6.37253 5.349 -0.999999 0.000977516 0.000977516
52.6 6.0743 4.79787 -0.999999 0.000977516 0.000977516
52.6 6.21024 5.49993 -0.999999 0.000977516 0.000977516
52.6 6.2437 4.91032 -0.999999 0.000977516 0.000977516
52.6 6.5064 5.183 -0.999999 0.000977516 0.000977516
52.6 6.00153 4.60904 -0.999999 0.000977516 0.000977516
52.6 8.60893 4.70289 -0.999999 0.000977516 0.000977516
52.6 8.50073 4.88987 -0.999999 0.000977516 0.000977516
52.6 8.71748 5.44243 -0.999999 0.000977516 0.000977516
52.6 8.96635 5.17975 -0.999999 0.000977516 0.000977516
52.6 9.03956 5.47248 -0.999999 0.000977516 0.000977516
52.6 8.69635 4.98 -0.999999 0.000977516 0.000977516
52.6 8.56004 5.29952 -0.999999 0.000977516 0.000977516
52.6 9.30561 5.42893 -0.999999 0.000977516 0.000977516
52.6 8.91023 4.96278 -0.999999 0.000977516 0.000977516
52.6 9.1891 5.25667 -0.999999 0.000977516 0.000977516
52.6 8.76921 5.23613 -0.999999 0.000977516 0.000977516
52.6 9.49618 5.49892 -0.999999 0.000977516 0.000977516
52.6 8.53278 5.09742 -0.999999 0.000977516 0.000977516
52.6 8.50328 4.50401 -0.999999 0.000977516 0.000977516
52.6 8.50663 5.49361 -0.999999 0.000977516 0.000977516
52.6 8.7884 4.79898 -0.999999 0.000977516 0.000977516
52.6 8.75265 4.5495 -0.999999 0.000977516 0.000977516
52.6 9.29004 4.51223 -0.999999 0.000977516 0.000977516
52.6 9.14817 4.69023 -0.999999 0.000977516 0.000977516
52.6 9.41173 5.0473 -0.999999 0.000977516 0.000977516
52.6 9.17242 4.92194 -0.999999 0.000977516 0.000977516
52.6 9.46819 4.80352 -0.999999 0.000977516 0.000977516
52.6 8.98767 4.55889 -0.999999 0.000977516 0.000977516
52.6 9.48786 4.5427 -0.999999 0.000977516 0.000977516
52.6 9.43771 5.25091 -0.999999 0.000977516 0.000977516
50 7.64796 4.87588 0.999999 0.000977516 0.000977516
50 7.87952 4.62174 0.999999 0.000977516 0.000977516
50 7.42037 4.52288 0.999999 0.000977516 0.000977516
50 7.4216 4.81886 0.999999 0.000977516 0.000977516
50 7.61553 5.1391 0.999999 0.000977516 0.000977516
50 8.19761 4.50402 0.999999 0.000977516 0.000977516
50 7.90868 4.99095 0.999999 0.000977516 0.000977516
50 7.65724 4.65033 0.999999 0.000977516 0.000977516
50 7.40743 5.14497 0.999999 0.000977516 0.000977516
50 7.44379 5.38746 0.999999 0.000977516 0.000977516
50 8.02081 4.76662 0.999999 0.000977516 0.000977516
50 8.39761 4.50033 0.999999 0.000977516 0.000977516
50 8.1268 5.22951 0.999999 0.000977516 0.000977516
50 8.22146 5.44935 0.999999 0.000977516 0.000977516
50 7.73388 5.33242 0.999999 0.000977516 0.000977516
50 8.27757 4.86284 0.999999 0.000977516 0.000977516
50 7.93749 5.37982 0.999999 0.000977516 0.000977516
50 8.35849 5.17226 0.999999 0.000977516 0.000977516
50 8.1067 5.02996 0.999999 0.000977516 0.000977516
50 8.39978 4.7021 0.999999 0.000977516 0.000977516
50 7.61462 5.49646 0.999999 0.000977516 0.000977516
50 7.87525 5.18839 0.999999 0.000977516 0.000977516
50 11.3715 4.95426 0.999999 0.000977516 0.000977516
50 11.0909 4.95613 0.999999 0.000977516 0.000977516
50 11.3701 5.26067 0.999999 0.000977516 0.000977516
50 10.7297 5.27005 0.999999 0.000977516 0.000977516
50 11.0081 5.36689 0.999999 0.000977516 0.000977516
50 11.2286 4.70093 0.999999 0.000977516 0.000977516
50 11.2086 5.44101 0.999999 0.000977516 0.000977516
50 11.3764 4.52464 0.999999 0.000977516 0.000977516
50 10.7506 5.49985 0.999999 0.000977516 0.000977516
50 11.1719 5.23005 0.999999 0.000977516 0.000977516
50 10.9163 5.11526 0.999999 0.000977516 0.000977516
50 10.5225 5.42318 0.999999 0.000977516 0.000977516
50 11.3999 5.49999 0.999999 0.000977516 0.000977516
50 10.586 5.04582 0.999999 0.000977516 0.000977516
50 10.8674 4.5973 0.999999 0.000977516 0.000977516
50 10.5268 4.8018 0.999999 0.000977516 0.000977516
50 10.847 4.8993 0.999999 0.000977516 0.000977516
50 10.5625 4.50643 0.999999 0.000977516 0.000977516
50 10.4018 4.64526 0.999999 0.000977516 0.000977516
50 10.4302 5.21666 0.999999 0.000977516 0.000977516
50 10.9981 4.75143 0.999999 0.000977516 0.000977516
50 11.171 4.50832 0.999999 0.000977516 0.000977516
50 10.7155 4.73054 0.999999 0.000977516 0.000977516
50 10.4028 4.96414 0.999999 0.000977516 0.000977516
53.4 14.3275 3.7743 0.999999 0.000977516 0.000977516
53.4 14.1034 3.75179 0.999999 0.000977516 0.000977516
53.4 14.3932 4.05698 0.999999 0.000977516 0.000977516
53.4 13.9269 3.61984 0.999999 0.000977516 0.000977516
53.0297 13.5541 3.6 0.000977516 -0.999999 0.000977516
52.9231 13.8029 3.6 0.000977516 -0.999999 0.000977516
53.1551 13.7609 3.6 0.000977516 -0.999999 0.000977516
52.7525 13.6729 3.6 0.000977516 -0.999999 0.000977516
52.4843 13.4261 3.6 0.000977516 -0.999999 0.000977516
