ply
format ascii 1.0
comment Created by CloudCompare v2.11.1 (Anoia)
comment Created 2024/7/30 下午5:47
obj_info Generated by CloudCompare!
element vertex 909
property float x
property float y
property float z
property float nx
property float ny
property float nz
end_header
11.7797 0 12.8503 0.000977516 0.999999 0.000977516 
-7.78649 0 9.35239 0.000977516 0.999999 0.000977516 
-2.42359 0 6.66871 0.000977516 0.999999 0.000977516 
4.70494 0 -4.08085 0.000977516 0.999999 0.000977516 
14.2739 0 -9.49854 0.000977516 0.999999 0.000977516 
8.04274 0 4.43556 0.000977516 0.999999 0.000977516 
10.2568 0 14.1474 0.000977516 0.999999 0.000977516 
14.1875 0 -3.82792 0.000977516 0.999999 0.000977516 
5.12931 0 14.2861 0.000977516 0.999999 0.000977516 
10.4808 0 6.01854 0.000977516 0.999999 0.000977516 
11.7544 0 -5.76784 0.000977516 0.999999 0.000977516 
14.9542 0 -1.2254 0.000977516 0.999999 0.000977516 
-0.349325 0 6.07843 0.000977516 0.999999 0.000977516 
14.6212 0 9.88244 0.000977516 0.999999 0.000977516 
6.38763 0 -3.51857 0.000977516 0.999999 0.000977516 
10.8505 0 6.66207 0.000977516 0.999999 0.000977516 
-5.56615 0 14.589 0.000977516 0.999999 0.000977516 
-4.34546 0 6.85509 0.000977516 0.999999 0.000977516 
-3.57749 0 13.9712 0.000977516 0.999999 0.000977516 
14.4014 0 10.1876 0.000977516 0.999999 0.000977516 
4.79767 0 -3.72286 0.000977516 0.999999 0.000977516 
-4.90204 0 12.1123 0.000977516 0.999999 0.000977516 
2.15738 0 6.62254 0.000977516 0.999999 0.000977516 
-13.0117 0 13.0399 0.000977516 0.999999 0.000977516 
11.1949 0 -2.50673 0.000977516 0.999999 0.000977516 
-4.86232 0 9.79187 0.000977516 0.999999 0.000977516 
6.76468 0 13.4537 0.000977516 0.999999 0.000977516 
-9.40584 0 12.65 0.000977516 0.999999 0.000977516 
-10.6893 0 14.9467 0.000977516 0.999999 0.000977516 
-2.33357 0 3.56378 0.000977516 0.999999 0.000977516 
14.8115 0 -2.37257 0.000977516 0.999999 0.000977516 
-0.233783 0 7.79579 0.000977516 0.999999 0.000977516 
7.64628 0 -6.0854 0.000977516 0.999999 0.000977516 
-0.956787 0 5.97093 0.000977516 0.999999 0.000977516 
8.0407 0 8.13782 0.000977516 0.999999 0.000977516 
14.6327 0 12.6661 0.000977516 0.999999 0.000977516 
-0.633691 0 1.08541 0.000977516 0.999999 0.000977516 
4.60504 0 1.68575 0.000977516 0.999999 0.000977516 
8.24032 0 1.55702 0.000977516 0.999999 0.000977516 
3.28598 0 14.0132 0.000977516 0.999999 0.000977516 
10.2677 0 10.9958 0.000977516 0.999999 0.000977516 
12.2613 0 14.7822 0.000977516 0.999999 0.000977516 
10.3773 0 3.11029 0.000977516 0.999999 0.000977516 
9.75235 0 6.41734 0.000977516 0.999999 0.000977516 
13.7147 0 -4.11125 0.000977516 0.999999 0.000977516 
-5.36923 0 14.651 0.000977516 0.999999 0.000977516 
8.55088 0 -8.4487 0.000977516 0.999999 0.000977516 
4.46433 0 3.44803 0.000977516 0.999999 0.000977516 
2.51706 0 -2.01562 0.000977516 0.999999 0.000977516 
-8.37616 0 13.781 0.000977516 0.999999 0.000977516 
5.42722 0 -5.06857 0.000977516 0.999999 0.000977516 
7.78624 0 7.99142 0.000977516 0.999999 0.000977516 
-5.77544 0 10.6531 0.000977516 0.999999 0.000977516 
8.56679 0 -1.46703 0.000977516 0.999999 0.000977516 
14.6378 0 -3.99127 0.000977516 0.999999 0.000977516 
8.92925 0 7.19943 0.000977516 0.999999 0.000977516 
11.8162 0 -4.03416 0.000977516 0.999999 0.000977516 
7.44285 0 -2.95972 0.000977516 0.999999 0.000977516 
-12.6528 0 14.675 0.000977516 0.999999 0.000977516 
6.901 0 -1.18793 0.000977516 0.999999 0.000977516 
14.0296 0 -11.0054 0.000977516 0.999999 0.000977516 
8.63904 0 11.3286 0.000977516 0.999999 0.000977516 
6.23201 0 -3.67543 0.000977516 0.999999 0.000977516 
3.26566 0 7.05592 0.000977516 0.999999 0.000977516 
8.93538 0 14.0033 0.000977516 0.999999 0.000977516 
6.22429 0 3.18891 0.000977516 0.999999 0.000977516 
11.3406 0 -5.14297 0.000977516 0.999999 0.000977516 
6.8638 0 4.98208 0.000977516 0.999999 0.000977516 
-2.3169 0 10.0061 0.000977516 0.999999 0.000977516 
4.14684 0 7.25762 0.000977516 0.999999 0.000977516 
-5.89715 0 14.9931 0.000977516 0.999999 0.000977516 
0.452479 0 14.5585 0.000977516 0.999999 0.000977516 
6.18262 0 8.30172 0.000977516 0.999999 0.000977516 
11.6063 0 -1.52658 0.000977516 0.999999 0.000977516 
3.04602 0 3.24519 0.000977516 0.999999 0.000977516 
10.2019 0 5.54952 0.000977516 0.999999 0.000977516 
9.92056 0 8.03762 0.000977516 0.999999 0.000977516 
1.24156 0 2.03366 0.000977516 0.999999 0.000977516 
-9.36528 0 14.3508 0.000977516 0.999999 0.000977516 
-2.96185 0 10.253 0.000977516 0.999999 0.000977516 
11.2995 0 -5.91026 0.000977516 0.999999 0.000977516 
11.0592 0 -3.4007 0.000977516 0.999999 0.000977516 
9.31428 0 1.20053 0.000977516 0.999999 0.000977516 
11.3511 0 -6.82223 0.000977516 0.999999 0.000977516 
-4.97077 0 12.3065 0.000977516 0.999999 0.000977516 
7.25379 0 -2.56802 0.000977516 0.999999 0.000977516 
-1.27101 0 5.26243 0.000977516 0.999999 0.000977516 
9.1606 0 12.4147 0.000977516 0.999999 0.000977516 
0.805204 0 13.5385 0.000977516 0.999999 0.000977516 
5.32509 0 -0.961927 0.000977516 0.999999 0.000977516 
-0.52751 0 5.43944 0.000977516 0.999999 0.000977516 
7.85282 0 1.32726 0.000977516 0.999999 0.000977516 
12.3187 0 8.23669 0.000977516 0.999999 0.000977516 
-5.07778 0 6.992 0.000977516 0.999999 0.000977516 
-7.34342 0 8.11128 0.000977516 0.999999 0.000977516 
8.82826 0 5.31327 0.000977516 0.999999 0.000977516 
-5.11822 0 12.0247 0.000977516 0.999999 0.000977516 
14.9991 0 -6.78368 0.000977516 0.999999 0.000977516 
4.10157 0 13.2156 0.000977516 0.999999 0.000977516 
14.9004 0 -13.675 0.000977516 0.999999 0.000977516 
-5.19723 0 11.4857 0.000977516 0.999999 0.000977516 
-0.755532 0 6.12838 0.000977516 0.999999 0.000977516 
5.04013 0 1.61505 0.000977516 0.999999 0.000977516 
1.92719 0 12.3429 0.000977516 0.999999 0.000977516 
10.7107 0 3.27477 0.000977516 0.999999 0.000977516 
3.7851 0 3.34605 0.000977516 0.999999 0.000977516 
11.8977 0 -6.94602 0.000977516 0.999999 0.000977516 
11.6872 0 3.023 0.000977516 0.999999 0.000977516 
12.3558 0 -11.5676 0.000977516 0.999999 0.000977516 
13.9073 0 -2.31086 0.000977516 0.999999 0.000977516 
-0.944402 0 7.14716 0.000977516 0.999999 0.000977516 
7.22341 0 13.7143 0.000977516 0.999999 0.000977516 
11.0808 0 -4.46638 0.000977516 0.999999 0.000977516 
-1.68341 0 3.47511 0.000977516 0.999999 0.000977516 
2.53984 0 -1.16949 0.000977516 0.999999 0.000977516 
-0.360442 0 11.9195 0.000977516 0.999999 0.000977516 
10.6563 0 14.2552 0.000977516 0.999999 0.000977516 
8.09208 0 -2.83954 0.000977516 0.999999 0.000977516 
8.85518 0 1.97048 0.000977516 0.999999 0.000977516 
8.97735 0 0.510498 0.000977516 0.999999 0.000977516 
-2.91979 0 8.47224 0.000977516 0.999999 0.000977516 
6.00873 0 0.754346 0.000977516 0.999999 0.000977516 
7.427 0 13.1647 0.000977516 0.999999 0.000977516 
10.069 0 -9.09436 0.000977516 0.999999 0.000977516 
7.60207 0 -4.96141 0.000977516 0.999999 0.000977516 
6.36115 0 -5.546 0.000977516 0.999999 0.000977516 
2.93588 0 6.11949 0.000977516 0.999999 0.000977516 
1.90027 0 8.68686 0.000977516 0.999999 0.000977516 
5.55086 0 6.71451 0.000977516 0.999999 0.000977516 
4.18105 0 3.77491 0.000977516 0.999999 0.000977516 
-7.64073 0 11.7211 0.000977516 0.999999 0.000977516 
1.56058 0 6.66081 0.000977516 0.999999 0.000977516 
3.29815 0 0.112678 0.000977516 0.999999 0.000977516 
-1.5458 0 6.56333 0.000977516 0.999999 0.000977516 
8.97062 0 13.4862 0.000977516 0.999999 0.000977516 
10.7605 0 -6.97719 0.000977516 0.999999 0.000977516 
10.7942 0 11.1699 0.000977516 0.999999 0.000977516 
3.8283 0 5.75653 0.000977516 0.999999 0.000977516 
-5.73092 0 7.1996 0.000977516 0.999999 0.000977516 
10.2911 0 0.221337 0.000977516 0.999999 0.000977516 
13.6528 0 -3.74508 0.000977516 0.999999 0.000977516 
1.37784 0 10.5239 0.000977516 0.999999 0.000977516 
-1.83211 0 13.1098 0.000977516 0.999999 0.000977516 
3.64033 0 4.9579 0.000977516 0.999999 0.000977516 
8.76163 0 10.5612 0.000977516 0.999999 0.000977516 
11.9021 0 -0.316438 0.000977516 0.999999 0.000977516 
8.85189 0 -2.92068 0.000977516 0.999999 0.000977516 
10.7448 0 -8.77408 0.000977516 0.999999 0.000977516 
8.97068 0 9.2834 0.000977516 0.999999 0.000977516 
6.1498 0 -2.63689 0.000977516 0.999999 0.000977516 
-1.58563 0 14.3279 0.000977516 0.999999 0.000977516 
-9.54821 0 10.2285 0.000977516 0.999999 0.000977516 
12.2293 0 7.17713 0.000977516 0.999999 0.000977516 
4.49173 0 14.9661 0.000977516 0.999999 0.000977516 
-2.38739 0 14.8006 0.000977516 0.999999 0.000977516 
10.6941 0 -5.90136 0.000977516 0.999999 0.000977516 
14.9885 0 10.8141 0.000977516 0.999999 0.000977516 
1.18953 0 5.92224 0.000977516 0.999999 0.000977516 
-1.4169 0 4.78305 0.000977516 0.999999 0.000977516 
1.75281 0 11.218 0.000977516 0.999999 0.000977516 
1.81168 0 -1.68507 0.000977516 0.999999 0.000977516 
3.10621 0 -2.76541 0.000977516 0.999999 0.000977516 
-4.0378 0 4.30705 0.000977516 0.999999 0.000977516 
3.64871 0 12.7422 0.000977516 0.999999 0.000977516 
4.66112 0 9.96076 0.000977516 0.999999 0.000977516 
11.8506 0 6.64615 0.000977516 0.999999 0.000977516 
11.6214 0 7.13594 0.000977516 0.999999 0.000977516 
4.63474 0 -2.20893 0.000977516 0.999999 0.000977516 
3.88851 0 5.0522 0.000977516 0.999999 0.000977516 
3.70614 0 8.89532 0.000977516 0.999999 0.000977516 
8.06672 0 -4.20906 0.000977516 0.999999 0.000977516 
-5.92056 0 7.14409 0.000977516 0.999999 0.000977516 
1.46952 0 6.50229 0.000977516 0.999999 0.000977516 
14.8156 0 -9.14116 0.000977516 0.999999 0.000977516 
-10.7391 0 14.0754 0.000977516 0.999999 0.000977516 
-2.43195 0 4.33922 0.000977516 0.999999 0.000977516 
13.6525 0 -9.87097 0.000977516 0.999999 0.000977516 
1.63165 0 2.94293 0.000977516 0.999999 0.000977516 
-3.4684 0 4.98086 0.000977516 0.999999 0.000977516 
-6.82869 0 9.11101 0.000977516 0.999999 0.000977516 
-7.51839 0 9.32228 0.000977516 0.999999 0.000977516 
-10.6733 0 11.5346 0.000977516 0.999999 0.000977516 
7.95571 0 14.1658 0.000977516 0.999999 0.000977516 
10.9712 0 0.597731 0.000977516 0.999999 0.000977516 
0.233861 0 12.8839 0.000977516 0.999999 0.000977516 
-2.75463 0 12.5416 0.000977516 0.999999 0.000977516 
4.33501 0 9.86049 0.000977516 0.999999 0.000977516 
7.37266 0 10.21 0.000977516 0.999999 0.000977516 
12.3271 0 6.53827 0.000977516 0.999999 0.000977516 
-9.58546 0 14.3999 0.000977516 0.999999 0.000977516 
-0.703264 0 13.2155 0.000977516 0.999999 0.000977516 
-4.39662 0 13.5785 0.000977516 0.999999 0.000977516 
13.9907 0 8.51074 0.000977516 0.999999 0.000977516 
14.9972 0 -8.65245 0.000977516 0.999999 0.000977516 
1.14032 0 1.75562 0.000977516 0.999999 0.000977516 
9.36867 0 5.21876 0.000977516 0.999999 0.000977516 
10.2792 0 -0.239476 0.000977516 0.999999 0.000977516 
14.6719 0 0.140361 0.000977516 0.999999 0.000977516 
-3.90849 0 7.80892 0.000977516 0.999999 0.000977516 
6.08279 0 8.85433 0.000977516 0.999999 0.000977516 
7.37726 0 -2.26763 0.000977516 0.999999 0.000977516 
-3.12356 0 5.98068 0.000977516 0.999999 0.000977516 
4.52976 0 -3.67244 0.000977516 0.999999 0.000977516 
-6.39093 0 8.08166 0.000977516 0.999999 0.000977516 
-8.87604 0 11.867 0.000977516 0.999999 0.000977516 
-4.12396 0 8.12795 0.000977516 0.999999 0.000977516 
3.42461 0 5.21908 0.000977516 0.999999 0.000977516 
-1.90387 0 5.53311 0.000977516 0.999999 0.000977516 
-6.48375 0 11.7828 0.000977516 0.999999 0.000977516 
7.13858 0 11.5941 0.000977516 0.999999 0.000977516 
0.899015 0 3.95355 0.000977516 0.999999 0.000977516 
12.2935 0 4.53784 0.000977516 0.999999 0.000977516 
-5.79779 0 12.0284 0.000977516 0.999999 0.000977516 
1.95547 0 9.66077 0.000977516 0.999999 0.000977516 
-8.34232 0 9.91358 0.000977516 0.999999 0.000977516 
7.85202 0 -2.40285 0.000977516 0.999999 0.000977516 
7.09384 0 4.91463 0.000977516 0.999999 0.000977516 
5.4407 0 -2.99824 0.000977516 0.999999 0.000977516 
11.2475 0 -5.00296 0.000977516 0.999999 0.000977516 
11.9398 0 -8.42721 0.000977516 0.999999 0.000977516 
10.3938 0 -0.444086 0.000977516 0.999999 0.000977516 
6.88735 0 -5.40171 0.000977516 0.999999 0.000977516 
6.9622 0 13.4663 0.000977516 0.999999 0.000977516 
-0.129044 0 14.78 0.000977516 0.999999 0.000977516 
2.93296 0 9.32695 0.000977516 0.999999 0.000977516 
14.3148 0 2.51088 0.000977516 0.999999 0.000977516 
6.91417 0 2.00652 0.000977516 0.999999 0.000977516 
14.3884 0 5.09491 0.000977516 0.999999 0.000977516 
-0.037832 0 3.7304 0.000977516 0.999999 0.000977516 
2.06923 0 9.0064 0.000977516 0.999999 0.000977516 
-1.24697 0 11.0328 0.000977516 0.999999 0.000977516 
-9.35427 0 14.9699 0.000977516 0.999999 0.000977516 
10.2399 0 -7.38709 0.000977516 0.999999 0.000977516 
0.180823 0 3.50443 0.000977516 0.999999 0.000977516 
-2.0351 0 2.58732 0.000977516 0.999999 0.000977516 
5.25296 0 -3.64671 0.000977516 0.999999 0.000977516 
-11.8485 0 14.8553 0.000977516 0.999999 0.000977516 
3.86664 0 2.92179 0.000977516 0.999999 0.000977516 
-3.00371 0 4.02811 0.000977516 0.999999 0.000977516 
9.2491 0 -8.86823 0.000977516 0.999999 0.000977516 
4.53588 0 6.53343 0.000977516 0.999999 0.000977516 
6.02505 0 -5.93173 0.000977516 0.999999 0.000977516 
-2.31532 0 12.9632 0.000977516 0.999999 0.000977516 
3.88725 0 -2.3808 0.000977516 0.999999 0.000977516 
1.40786 0 0.634863 0.000977516 0.999999 0.000977516 
14.9268 0 -2.73078 0.000977516 0.999999 0.000977516 
-1.21988 0 4.24673 0.000977516 0.999999 0.000977516 
0.9702 0 3.32383 0.000977516 0.999999 0.000977516 
11.1022 0 -7.135 0.000977516 0.999999 0.000977516 
14.2389 0 -13.7813 0.000977516 0.999999 0.000977516 
-0.535322 0 14.1847 0.000977516 0.999999 0.000977516 
1.24612 0 7.24703 0.000977516 0.999999 0.000977516 
14.9771 0 7.50506 0.000977516 0.999999 0.000977516 
1.43366 0 13.9597 0.000977516 0.999999 0.000977516 
4.40877 0 10.2704 0.000977516 0.999999 0.000977516 
2.80238 0 13.9544 0.000977516 0.999999 0.000977516 
13.6626 0 4.51886 0.000977516 0.999999 0.000977516 
8.60556 0 9.38582 0.000977516 0.999999 0.000977516 
1.68408 0 0.176166 0.000977516 0.999999 0.000977516 
14.4118 0 11.0994 0.000977516 0.999999 0.000977516 
-6.21421 0 9.75313 0.000977516 0.999999 0.000977516 
5.73762 0 9.42246 0.000977516 0.999999 0.000977516 
6.20587 0 14.3081 0.000977516 0.999999 0.000977516 
-7.31422 0 9.69138 0.000977516 0.999999 0.000977516 
7.11991 0 -3.60997 0.000977516 0.999999 0.000977516 
-10.5754 0 11.7677 0.000977516 0.999999 0.000977516 
11.6557 0 9.8948 0.000977516 0.999999 0.000977516 
1.60399 0 5.34706 0.000977516 0.999999 0.000977516 
12.0261 0 7.51684 0.000977516 0.999999 0.000977516 
-0.835084 0 2.87349 0.000977516 0.999999 0.000977516 
4.89753 0 8.87864 0.000977516 0.999999 0.000977516 
9.53325 0 10.6923 0.000977516 0.999999 0.000977516 
-2.05499 0 10.4311 0.000977516 0.999999 0.000977516 
4.82209 0 -2.10922 0.000977516 0.999999 0.000977516 
-1.49035 0 5.4455 0.000977516 0.999999 0.000977516 
9.3116 0 2.47587 0.000977516 0.999999 0.000977516 
2.48633 0 10.4327 0.000977516 0.999999 0.000977516 
3.61207 0 -2.59032 0.000977516 0.999999 0.000977516 
11.4526 0 9.16545 0.000977516 0.999999 0.000977516 
4.77129 0 6.7143 0.000977516 0.999999 0.000977516 
-3.49286 0 14.1032 0.000977516 0.999999 0.000977516 
1.62147 0 12.8551 0.000977516 0.999999 0.000977516 
7.94991 0 8.56021 0.000977516 0.999999 0.000977516 
14.9975 0 4.59178 0.000977516 0.999999 0.000977516 
6.24025 0 -1.25884 0.000977516 0.999999 0.000977516 
5.12205 0 7.94727 0.000977516 0.999999 0.000977516 
2.99511 0 10.5999 0.000977516 0.999999 0.000977516 
10.5941 0 9.57902 0.000977516 0.999999 0.000977516 
5.74572 0 -2.00878 0.000977516 0.999999 0.000977516 
3.15949 0 12.5196 0.000977516 0.999999 0.000977516 
14.9905 0 10.9717 0.000977516 0.999999 0.000977516 
8.85298 0 -2.30657 0.000977516 0.999999 0.000977516 
4.16769 0 5.78192 0.000977516 0.999999 0.000977516 
-6.6391 0 14.6387 0.000977516 0.999999 0.000977516 
10.2709 0 -9.16873 0.000977516 0.999999 0.000977516 
12.408 0 -1.87068 0.000977516 0.999999 0.000977516 
-1.95175 0 13.8351 0.000977516 0.999999 0.000977516 
-9.13139 0 11.2502 0.000977516 0.999999 0.000977516 
-6.67354 0 14.4826 0.000977516 0.999999 0.000977516 
11.4705 0 13.2571 0.000977516 0.999999 0.000977516 
8.35575 0 -5.57706 0.000977516 0.999999 0.000977516 
11.0828 0 2.87137 0.000977516 0.999999 0.000977516 
1.14549 0 8.189 0.000977516 0.999999 0.000977516 
3.0132 0 5.25063 0.000977516 0.999999 0.000977516 
3.54759 0 0.741763 0.000977516 0.999999 0.000977516 
1.65892 0 0.905725 0.000977516 0.999999 0.000977516 
14.9958 0 9.06806 0.000977516 0.999999 0.000977516 
10.455 0 6.34382 0.000977516 0.999999 0.000977516 
13.6316 0 -5.81536 0.000977516 0.999999 0.000977516 
-8.39515 0 8.67518 0.000977516 0.999999 0.000977516 
-2.63734 0 12.6508 0.000977516 0.999999 0.000977516 
-9.0774 0 14.9528 0.000977516 0.999999 0.000977516 
4.71966 0 9.36725 0.000977516 0.999999 0.000977516 
9.76452 0 12.3689 0.000977516 0.999999 0.000977516 
4.76038 0 8.71345 0.000977516 0.999999 0.000977516 
14.2626 0 -13.0106 0.000977516 0.999999 0.000977516 
-1.10243 0 5.56656 0.000977516 0.999999 0.000977516 
-5.19014 0 9.03971 0.000977516 0.999999 0.000977516 
2.57086 0 3.5693 0.000977516 0.999999 0.000977516 
10.1973 0 -5.1489 0.000977516 0.999999 0.000977516 
-6.01419 0 14.1505 0.000977516 0.999999 0.000977516 
-3.38782 0 10.7785 0.000977516 0.999999 0.000977516 
0.299581 0 2.6495 0.000977516 0.999999 0.000977516 
11.6387 0 1.53159 0.000977516 0.999999 0.000977516 
-6.98811 0 9.19979 0.000977516 0.999999 0.000977516 
14.1481 0 14.4628 0.000977516 0.999999 0.000977516 
11.3116 0 -1.84638 0.000977516 0.999999 0.000977516 
-5.98094 0 14.4277 0.000977516 0.999999 0.000977516 
8.26149 0 8.62054 0.000977516 0.999999 0.000977516 
13.8477 0 -1.66305 0.000977516 0.999999 0.000977516 
5.97123 0 1.79994 0.000977516 0.999999 0.000977516 
4.74742 0 7.77827 0.000977516 0.999999 0.000977516 
2.07311 0 0.211742 0.000977516 0.999999 0.000977516 
14.1339 0 2.89391 0.000977516 0.999999 0.000977516 
1.59855 0 13.5726 0.000977516 0.999999 0.000977516 
7.40893 0 4.05001 0.000977516 0.999999 0.000977516 
11.7832 0 11.6489 0.000977516 0.999999 0.000977516 
-2.26986 0 4.2248 0.000977516 0.999999 0.000977516 
1.81223 0 2.16764 0.000977516 0.999999 0.000977516 
14.513 0 4.19186 0.000977516 0.999999 0.000977516 
4.62002 0 2.45509 0.000977516 0.999999 0.000977516 
10.0079 0 7.02787 0.000977516 0.999999 0.000977516 
10.8265 0 -9.99053 0.000977516 0.999999 0.000977516 
5.51417 0 14.638 0.000977516 0.999999 0.000977516 
9.01157 0 -1.94691 0.000977516 0.999999 0.000977516 
0.097168 0 0.298882 0.000977516 0.999999 0.000977516 
0.820704 0 8.35948 0.000977516 0.999999 0.000977516 
-6.73524 0 11.9433 0.000977516 0.999999 0.000977516 
14.1208 0 -6.10743 0.000977516 0.999999 0.000977516 
2.38417 0 11.1796 0.000977516 0.999999 0.000977516 
11.1893 0 5.18235 0.000977516 0.999999 0.000977516 
-8.91634 0 14.5741 0.000977516 0.999999 0.000977516 
11.5854 0 1.74965 0.000977516 0.999999 0.000977516 
-3.48842 0 10.3418 0.000977516 0.999999 0.000977516 
10.935 0 -5.17025 0.000977516 0.999999 0.000977516 
11.4885 0 5.9918 0.000977516 0.999999 0.000977516 
5.11658 0 12.1952 0.000977516 0.999999 0.000977516 
6.73468 0 -2.54894 0.000977516 0.999999 0.000977516 
11.6923 0 -10.9469 0.000977516 0.999999 0.000977516 
14.4421 0 -11.1838 0.000977516 0.999999 0.000977516 
8.35624 0 -2.97803 0.000977516 0.999999 0.000977516 
2.96693 0 6.72414 0.000977516 0.999999 0.000977516 
-5.89107 0 6.58192 0.000977516 0.999999 0.000977516 
-3.05562 0 4.56782 0.000977516 0.999999 0.000977516 
7.41866 0 10.6807 0.000977516 0.999999 0.000977516 
2.43334 0 4.77782 0.000977516 0.999999 0.000977516 
-10.4898 0 14.9841 0.000977516 0.999999 0.000977516 
6.42887 0 -3.68122 0.000977516 0.999999 0.000977516 
2.23819 0 -0.0599683 0.000977516 0.999999 0.000977516 
-8.75973 0 10.0555 0.000977516 0.999999 0.000977516 
11.1108 0 12.0005 0.000977516 0.999999 0.000977516 
-0.153805 0 7.93514 0.000977516 0.999999 0.000977516 
5.77376 0 -5.5507 0.000977516 0.999999 0.000977516 
8.68556 0 9.22906 0.000977516 0.999999 0.000977516 
-6.99364 0 11.1445 0.000977516 0.999999 0.000977516 
-9.14259 0 10.1128 0.000977516 0.999999 0.000977516 
-7.91585 0 8.52164 0.000977516 0.999999 0.000977516 
3.80065 0 -0.166783 0.000977516 0.999999 0.000977516 
-2.28262 0 5.70413 0.000977516 0.999999 0.000977516 
-7.48465 0 11.1879 0.000977516 0.999999 0.000977516 
3.15138 0 4.42862 0.000977516 0.999999 0.000977516 
-11.9182 0 14.0836 0.000977516 0.999999 0.000977516 
6.27494 0 1.82279 0.000977516 0.999999 0.000977516 
-2.20436 0 7.71912 0.000977516 0.999999 0.000977516 
3.12726 0 2.31635 0.000977516 0.999999 0.000977516 
9.99853 0 11.6794 0.000977516 0.999999 0.000977516 
14.7957 0 14.381 0.000977516 0.999999 0.000977516 
2.79984 0 12.278 0.000977516 0.999999 0.000977516 
12.1609 0 0.587673 0.000977516 0.999999 0.000977516 
5.61909 0 -3.24417 0.000977516 0.999999 0.000977516 
-2.59471 0 11.5055 0.000977516 0.999999 0.000977516 
4.68835 0 13.8013 0.000977516 0.999999 0.000977516 
10.4726 0 8.2123 0.000977516 0.999999 0.000977516 
14.7594 0 11.5403 0.000977516 0.999999 0.000977516 
-4.16102 0 9.26495 0.000977516 0.999999 0.000977516 
11.9361 0 2.52401 0.000977516 0.999999 0.000977516 
-8.30978 0 11.9603 0.000977516 0.999999 0.000977516 
6.50239 0 -5.10882 0.000977516 0.999999 0.000977516 
1.5583 0 8.6456 0.000977516 0.999999 0.000977516 
1.17395 0 4.58451 0.000977516 0.999999 0.000977516 
-1.32409 0 7.2177 0.000977516 0.999999 0.000977516 
11.3201 0 0.599481 0.000977516 0.999999 0.000977516 
4.43203 0 7.61028 0.000977516 0.999999 0.000977516 
-1.35462 0 5.05392 0.000977516 0.999999 0.000977516 
2.9245 0 3.59698 0.000977516 0.999999 0.000977516 
6.16817 0 -0.262875 0.000977516 0.999999 0.000977516 
13.9192 0 -7.87302 0.000977516 0.999999 0.000977516 
5.45994 0 7.40866 0.000977516 0.999999 0.000977516 
-0.776462 0 3.41172 0.000977516 0.999999 0.000977516 
10.002 0 -9.80356 0.000977516 0.999999 0.000977516 
7.46478 0 10.9968 0.000977516 0.999999 0.000977516 
8.68013 0 5.41769 0.000977516 0.999999 0.000977516 
14.4926 0 5.43682 0.000977516 0.999999 0.000977516 
4.14099 0 -1.62873 0.000977516 0.999999 0.000977516 
10.8113 0 -0.430363 0.000977516 0.999999 0.000977516 
6.92769 0 5.24953 0.000977516 0.999999 0.000977516 
9.50669 0 5.51297 0.000977516 0.999999 0.000977516 
-3.75727 0 8.06301 0.000977516 0.999999 0.000977516 
-8.25485 0 10.2663 0.000977516 0.999999 0.000977516 
7.80809 0 3.68624 0.000977516 0.999999 0.000977516 
10.7605 0 6.9488 0.000977516 0.999999 0.000977516 
-4.72688 0 12.6764 0.000977516 0.999999 0.000977516 
6.54635 0 -6.40946 0.000977516 0.999999 0.000977516 
8.13736 0 4.21126 0.000977516 0.999999 0.000977516 
10.0395 0 5.51581 0.000977516 0.999999 0.000977516 
-3.2797 0 6.18453 0.000977516 0.999999 0.000977516 
14.9867 0 -10.3355 0.000977516 0.999999 0.000977516 
-5.27441 0 5.42754 0.000977516 0.999999 0.000977516 
4.60789 0 11.6113 0.000977516 0.999999 0.000977516 
10.4821 0 -4.73124 0.000977516 0.999999 0.000977516 
7.37493 0 7.15261 0.000977516 0.999999 0.000977516 
6.27572 0 5.44866 0.000977516 0.999999 0.000977516 
7.80228 0 4.82561 0.000977516 0.999999 0.000977516 
2.16151 0 9.95629 0.000977516 0.999999 0.000977516 
4.13618 0 -2.6014 0.000977516 0.999999 0.000977516 
4.72059 0 9.59926 0.000977516 0.999999 0.000977516 
12.1399 0 5.4726 0.000977516 0.999999 0.000977516 
8.23473 0 14.0183 0.000977516 0.999999 0.000977516 
13.6679 0 -2.72388 0.000977516 0.999999 0.000977516 
6.94104 0 -0.53364 0.000977516 0.999999 0.000977516 
14.8253 0 -3.78873 0.000977516 0.999999 0.000977516 
8.67646 0 -5.1107 0.000977516 0.999999 0.000977516 
10.7859 0 -9.8156 0.000977516 0.999999 0.000977516 
-8.80772 0 11.4277 0.000977516 0.999999 0.000977516 
5.86056 0 -1.35484 0.000977516 0.999999 0.000977516 
0.0636975 0 5.28971 0.000977516 0.999999 0.000977516 
9.69821 0 8.7375 0.000977516 0.999999 0.000977516 
-6.4626 0 14.4216 0.000977516 0.999999 0.000977516 
-4.11359 0 11.5052 0.000977516 0.999999 0.000977516 
-1.58357 0 12.9315 0.000977516 0.999999 0.000977516 
-4.62017 0 5.65995 0.000977516 0.999999 0.000977516 
5.26814 0 4.49875 0.000977516 0.999999 0.000977516 
9.7612 0 -2.019 0.000977516 0.999999 0.000977516 
9.34936 0 12.7143 0.000977516 0.999999 0.000977516 
1.88397 0 8.04515 0.000977516 0.999999 0.000977516 
3.91041 0 7.06051 0.000977516 0.999999 0.000977516 
14.0638 0 -12.241 0.000977516 0.999999 0.000977516 
6.54742 0 5.74893 0.000977516 0.999999 0.000977516 
11.8801 0 14.9707 0.000977516 0.999999 0.000977516 
-1.95538 0 14.5772 0.000977516 0.999999 0.000977516 
5.30483 0 13.2523 0.000977516 0.999999 0.000977516 
-3.82623 0 7.23159 0.000977516 0.999999 0.000977516 
12.2827 0 -7.4612 0.000977516 0.999999 0.000977516 
6.25467 0 12.8259 0.000977516 0.999999 0.000977516 
14.2269 0 13.3696 0.000977516 0.999999 0.000977516 
13.6511 0 -1.96827 0.000977516 0.999999 0.000977516 
14.2506 0 2.17026 0.000977516 0.999999 0.000977516 
14.7477 0 -11.2074 0.000977516 0.999999 0.000977516 
11.5222 0 -2.84948 0.000977516 0.999999 0.000977516 
-1.67234 0 6.42789 0.000977516 0.999999 0.000977516 
4.64612 0 -0.689183 0.000977516 0.999999 0.000977516 
6.33548 0 9.5051 0.000977516 0.999999 0.000977516 
2.05729 0 3.12866 0.000977516 0.999999 0.000977516 
5.29535 0 -4.19842 0.000977516 0.999999 0.000977516 
1.00404 0 13.2837 0.000977516 0.999999 0.000977516 
8.57606 0 -4.6028 0.000977516 0.999999 0.000977516 
2.53895 0 6.98953 0.000977516 0.999999 0.000977516 
2.23957 0 2.78982 0.000977516 0.999999 0.000977516 
12.3968 0 7.16488 0.000977516 0.999999 0.000977516 
3.4838 0 1.12471 0.000977516 0.999999 0.000977516 
-11.3441 0 13.6181 0.000977516 0.999999 0.000977516 
9.62523 0 6.10515 0.000977516 0.999999 0.000977516 
0.767634 0 6.01955 0.000977516 0.999999 0.000977516 
-3.53118 0 7.23688 0.000977516 0.999999 0.000977516 
-1.46378 0 12.8355 0.000977516 0.999999 0.000977516 
13.6411 0 -11.471 0.000977516 0.999999 0.000977516 
-9.84036 0 9.97846 0.000977516 0.999999 0.000977516 
-6.00104 0 9.22703 0.000977516 0.999999 0.000977516 
8.62654 0 12.8657 0.000977516 0.999999 0.000977516 
-5.67556 0 12.5272 0.000977516 0.999999 0.000977516 
0.814128 0 6.83364 0.000977516 0.999999 0.000977516 
6.73298 0 6.69743 0.000977516 0.999999 0.000977516 
0.947937 0 8.60961 0.000977516 0.999999 0.000977516 
-2.63802 0 4.19802 0.000977516 0.999999 0.000977516 
-0.0328137 0 12.3522 0.000977516 0.999999 0.000977516 
8.48109 0 9.95541 0.000977516 0.999999 0.000977516 
8.47399 0 14.9796 0.000977516 0.999999 0.000977516 
12.1211 0 9.5654 0.000977516 0.999999 0.000977516 
-4.9296 0 7.5469 0.000977516 0.999999 0.000977516 
10.9936 0 14.2279 0.000977516 0.999999 0.000977516 
-8.07994 0 12.9124 0.000977516 0.999999 0.000977516 
14.41 0 6.88995 0.000977516 0.999999 0.000977516 
-3.59553 0 6.82653 0.000977516 0.999999 0.000977516 
-6.90267 0 13.5764 0.000977516 0.999999 0.000977516 
-11.7698 0 13.5301 0.000977516 0.999999 0.000977516 
-0.011145 0 11.8001 0.000977516 0.999999 0.000977516 
-8.59123 0 12.942 0.000977516 0.999999 0.000977516 
6.55778 0 0.0582593 0.000977516 0.999999 0.000977516 
6.42336 0 4.23153 0.000977516 0.999999 0.000977516 
-1.21645 0 8.65661 0.000977516 0.999999 0.000977516 
6.20004 0 2.29826 0.000977516 0.999999 0.000977516 
-10.7424 0 14.5288 0.000977516 0.999999 0.000977516 
3.61824 0 10.9645 0.000977516 0.999999 0.000977516 
11.8123 0 -9.32956 0.000977516 0.999999 0.000977516 
2.95536 0 10.2189 0.000977516 0.999999 0.000977516 
5.50223 0 13.876 0.000977516 0.999999 0.000977516 
2.50223 0 14.4015 0.000977516 0.999999 0.000977516 
9.96716 0 -7.17405 0.000977516 0.999999 0.000977516 
11.4885 0 -3.95832 0.000977516 0.999999 0.000977516 
11.0823 0 -4.12289 0.000977516 0.999999 0.000977516 
-2.56578 0 10.5235 0.000977516 0.999999 0.000977516 
11.1078 0 13.8892 0.000977516 0.999999 0.000977516 
-3.58759 0 8.30863 0.000977516 0.999999 0.000977516 
9.34653 0 -5.71525 0.000977516 0.999999 0.000977516 
-1.40652 0 5.73227 0.000977516 0.999999 0.000977516 
3.13688 0 10.3772 0.000977516 0.999999 0.000977516 
-1.23247 0 11.5544 0.000977516 0.999999 0.000977516 
13.6593 0 -11.9831 0.000977516 0.999999 0.000977516 
9.64763 0 7.69694 0.000977516 0.999999 0.000977516 
11.8554 0 2.1362 0.000977516 0.999999 0.000977516 
-0.369634 0 13.9595 0.000977516 0.999999 0.000977516 
7.68969 0 3.93947 0.000977516 0.999999 0.000977516 
-6.3961 0 14.998 0.000977516 0.999999 0.000977516 
4.46105 0 -0.892067 0.000977516 0.999999 0.000977516 
-10.3312 0 10.9337 0.000977516 0.999999 0.000977516 
9.72439 0 3.01828 0.000977516 0.999999 0.000977516 
-8.1854 0 14.211 0.000977516 0.999999 0.000977516 
4.43264 0 6.91382 0.000977516 0.999999 0.000977516 
14.0145 0 5.14849 0.000977516 0.999999 0.000977516 
0.988228 0 6.14143 0.000977516 0.999999 0.000977516 
10.2307 0 -2.608 0.000977516 0.999999 0.000977516 
8.44006 0 -1.19993 0.000977516 0.999999 0.000977516 
-6.03359 0 13.3468 0.000977516 0.999999 0.000977516 
-3.18356 0 14.7644 0.000977516 0.999999 0.000977516 
2.09317 0 11.8492 0.000977516 0.999999 0.000977516 
-1.06072 0 6.12116 0.000977516 0.999999 0.000977516 
13.5296 0 -6.2456 0.000977516 0.999999 0.000977516 
5.70489 0 10.9611 0.000977516 0.999999 0.000977516 
7.55796 0 8.70524 0.000977516 0.999999 0.000977516 
-13.1322 0 13.3435 0.000977516 0.999999 0.000977516 
-0.774371 0 14.768 0.000977516 0.999999 0.000977516 
-1.63402 0 7.01728 0.000977516 0.999999 0.000977516 
13.8162 0 -12.0378 0.000977516 0.999999 0.000977516 
-0.677479 0 11.9218 0.000977516 0.999999 0.000977516 
9.13709 0 -1.35015 0.000977516 0.999999 0.000977516 
-1.60884 0 11.8251 0.000977516 0.999999 0.000977516 
11.0368 0 9.93493 0.000977516 0.999999 0.000977516 
7.04238 0 -0.960177 0.000977516 0.999999 0.000977516 
11.3893 0 11.1987 0.000977516 0.999999 0.000977516 
-2.12068 0 6.1494 0.000977516 0.999999 0.000977516 
6.78446 0 0.0414917 0.000977516 0.999999 0.000977516 
14.0545 0 4.14054 0.000977516 0.999999 0.000977516 
2.08032 0 7.78153 0.000977516 0.999999 0.000977516 
6.21893 0 7.83517 0.000977516 0.999999 0.000977516 
7.13485 0 13.3697 0.000977516 0.999999 0.000977516 
5.02909 0 -4.86003 0.000977516 0.999999 0.000977516 
14.4284 0 -10.8136 0.000977516 0.999999 0.000977516 
-1.24551 0 13.8348 0.000977516 0.999999 0.000977516 
-7.90105 0 12.3456 0.000977516 0.999999 0.000977516 
-7.86167 0 11.0485 0.000977516 0.999999 0.000977516 
5.39661 0 13.4316 0.000977516 0.999999 0.000977516 
3.0417 0 12.8664 0.000977516 0.999999 0.000977516 
6.73683 0 8.24974 0.000977516 0.999999 0.000977516 
7.30327 0 -6.17449 0.000977516 0.999999 0.000977516 
-4.55907 0 14.2276 0.000977516 0.999999 0.000977516 
14.5321 0 5.19398 0.000977516 0.999999 0.000977516 
-0.751522 0 8.09359 0.000977516 0.999999 0.000977516 
-0.124333 0 14.5197 0.000977516 0.999999 0.000977516 
5.75103 0 0.760038 0.000977516 0.999999 0.000977516 
14.4815 0 -14.4513 0.000977516 0.999999 0.000977516 
14.9557 0 6.8001 0.000977516 0.999999 0.000977516 
7.92679 0 6.03527 0.000977516 0.999999 0.000977516 
12.3369 0 8.03119 0.000977516 0.999999 0.000977516 
8.39011 0 5.5715 0.000977516 0.999999 0.000977516 
-0.401306 0 6.64096 0.000977516 0.999999 0.000977516 
2.13932 0 10.6058 0.000977516 0.999999 0.000977516 
-10.4878 0 14.7342 0.000977516 0.999999 0.000977516 
14.3071 0 3.2999 0.000977516 0.999999 0.000977516 
-2.04097 0 11.5347 0.000977516 0.999999 0.000977516 
1.29666 0 14.7832 0.000977516 0.999999 0.000977516 
-8.6118 0 9.19698 0.000977516 0.999999 0.000977516 
11.8259 0 13.6051 0.000977516 0.999999 0.000977516 
-3.02142 0 10.895 0.000977516 0.999999 0.000977516 
-14.0943 0 14.626 0.000977516 0.999999 0.000977516 
11.377 0 -10.2415 0.000977516 0.999999 0.000977516 
8.99842 0 -4.7073 0.000977516 0.999999 0.000977516 
5.56853 0 -3.889 0.000977516 0.999999 0.000977516 
9.0335 0 3.98459 0.000977516 0.999999 0.000977516 
8.20679 0 5.45453 0.000977516 0.999999 0.000977516 
-2.87938 0 14.4737 0.000977516 0.999999 0.000977516 
2.73096 0 -0.862686 0.000977516 0.999999 0.000977516 
0.187578 0 13.8214 0.000977516 0.999999 0.000977516 
-6.37008 0 9.68896 0.000977516 0.999999 0.000977516 
6.39052 0 12.576 0.000977516 0.999999 0.000977516 
-5.21399 0 7.33798 0.000977516 0.999999 0.000977516 
6.76324 0 3.05187 0.000977516 0.999999 0.000977516 
6.05103 0 1.06667 0.000977516 0.999999 0.000977516 
0.316661 0 12.3575 0.000977516 0.999999 0.000977516 
1.84387 0 9.53937 0.000977516 0.999999 0.000977516 
3.75406 0 -3.02421 0.000977516 0.999999 0.000977516 
12.1621 0 -5.43592 0.000977516 0.999999 0.000977516 
2.61232 0 1.52975 0.000977516 0.999999 0.000977516 
0.625966 0 7.32367 0.000977516 0.999999 0.000977516 
10.1836 0 -1.24342 0.000977516 0.999999 0.000977516 
5.39239 0 10.1467 0.000977516 0.999999 0.000977516 
-4.97466 0 13.3813 0.000977516 0.999999 0.000977516 
3.92324 0 2.71318 0.000977516 0.999999 0.000977516 
9.73921 0 4.17503 0.000977516 0.999999 0.000977516 
14.8161 0 -1.13942 0.000977516 0.999999 0.000977516 
-8.04731 0 14.3176 0.000977516 0.999999 0.000977516 
9.97829 0 14.3341 0.000977516 0.999999 0.000977516 
14.9801 0 -9.61462 0.000977516 0.999999 0.000977516 
7.0851 0 9.67002 0.000977516 0.999999 0.000977516 
10.6391 0 10.8824 0.000977516 0.999999 0.000977516 
7.06057 0 3.96922 0.000977516 0.999999 0.000977516 
-6.6342 0 9.61432 0.000977516 0.999999 0.000977516 
9.22873 0 10.1616 0.000977516 0.999999 0.000977516 
8.66799 0 14.0932 0.000977516 0.999999 0.000977516 
11.5179 0 1.37911 0.000977516 0.999999 0.000977516 
5.4708 0 -1.63804 0.000977516 0.999999 0.000977516 
-4.14319 0 7.06329 0.000977516 0.999999 0.000977516 
10.2954 0 1.74905 0.000977516 0.999999 0.000977516 
-2.02744 0 7.37573 0.000977516 0.999999 0.000977516 
-8.73096 0 10.476 0.000977516 0.999999 0.000977516 
7.96905 0 -2.5229 0.000977516 0.999999 0.000977516 
14.9473 0 6.22369 0.000977516 0.999999 0.000977516 
13.5832 0 14.1021 0.000977516 0.999999 0.000977516 
5.11511 0 8.94955 0.000977516 0.999999 0.000977516 
8.93216 0 -6.81511 0.000977516 0.999999 0.000977516 
9.1025 0 14.4183 0.000977516 0.999999 0.000977516 
10.1205 0 -2.1617 0.000977516 0.999999 0.000977516 
-0.172555 0 4.76297 0.000977516 0.999999 0.000977516 
9.95134 0 -1.46812 0.000977516 0.999999 0.000977516 
-2.63254 0 7.12613 0.000977516 0.999999 0.000977516 
11.3761 0 8.35158 0.000977516 0.999999 0.000977516 
-5.66156 0 7.99347 0.000977516 0.999999 0.000977516 
-0.971934 0 13.5278 0.000977516 0.999999 0.000977516 
3.553 0 12.9766 0.000977516 0.999999 0.000977516 
-2.87926 0 9.35891 0.000977516 0.999999 0.000977516 
-4.59715 0 9.46522 0.000977516 0.999999 0.000977516 
3.35224 0 6.34713 0.000977516 0.999999 0.000977516 
12.3006 0 7.32878 0.000977516 0.999999 0.000977516 
14.4309 0 -13.0656 0.000977516 0.999999 0.000977516 
2.20881 0 11.7222 0.000977516 0.999999 0.000977516 
11.676 0 -11.5907 0.000977516 0.999999 0.000977516 
7.36452 0 -4.08713 0.000977516 0.999999 0.000977516 
7.15228 0 -0.141598 0.000977516 0.999999 0.000977516 
-6.30866 0 13.5538 0.000977516 0.999999 0.000977516 
11.6511 0 4.34181 0.000977516 0.999999 0.000977516 
14.0517 0 -8.96066 0.000977516 0.999999 0.000977516 
9.41532 0 -7.1653 0.000977516 0.999999 0.000977516 
10.9287 0 11.093 0.000977516 0.999999 0.000977516 
-11.6939 0 12.3976 0.000977516 0.999999 0.000977516 
-11.9506 0 12.0554 0.000977516 0.999999 0.000977516 
12.0608 0 -9.84531 0.000977516 0.999999 0.000977516 
10.0188 0 -5.04191 0.000977516 0.999999 0.000977516 
-1.54027 0 10.0565 0.000977516 0.999999 0.000977516 
3.85536 0 1.15947 0.000977516 0.999999 0.000977516 
5.96718 0 10.4456 0.000977516 0.999999 0.000977516 
13.6943 0 -4.3188 0.000977516 0.999999 0.000977516 
-6.31019 0 7.89085 0.000977516 0.999999 0.000977516 
10.5402 0 -2.37982 0.000977516 0.999999 0.000977516 
9.87167 0 -7.80634 0.000977516 0.999999 0.000977516 
-9.54778 0 13.4001 0.000977516 0.999999 0.000977516 
-6.2713 0 10.0155 0.000977516 0.999999 0.000977516 
-3.54973 0 3.85541 0.000977516 0.999999 0.000977516 
11.7374 0 -2.79208 0.000977516 0.999999 0.000977516 
8.86852 0 12.9891 0.000977516 0.999999 0.000977516 
1.54344 0 9.93357 0.000977516 0.999999 0.000977516 
2.46767 0 6.64841 0.000977516 0.999999 0.000977516 
9.7577 0 -3.29918 0.000977516 0.999999 0.000977516 
8.6054 0 -6.08802 0.000977516 0.999999 0.000977516 
11.9845 0 0.357345 0.000977516 0.999999 0.000977516 
7.73905 0 10.7565 0.000977516 0.999999 0.000977516 
-2.59746 0 8.11025 0.000977516 0.999999 0.000977516 
7.43034 0 6.20961 0.000977516 0.999999 0.000977516 
12.0021 0 2.67788 0.000977516 0.999999 0.000977516 
14.6897 0 -10.4562 0.000977516 0.999999 0.000977516 
9.61972 0 13.3342 0.000977516 0.999999 0.000977516 
11.896 0 -5.26083 0.000977516 0.999999 0.000977516 
14.8513 0 8.60847 0.000977516 0.999999 0.000977516 
7.19781 0 -2.27817 0.000977516 0.999999 0.000977516 
8.62353 0 7.11457 0.000977516 0.999999 0.000977516 
3.68178 0 -2.12216 0.000977516 0.999999 0.000977516 
14.6229 0 -1.82653 0.000977516 0.999999 0.000977516 
-0.0786816 0 3.97464 0.000977516 0.999999 0.000977516 
11.8509 0 -6.69568 0.000977516 0.999999 0.000977516 
-7.63672 0 10.1131 0.000977516 0.999999 0.000977516 
-7.00196 0 10.3469 0.000977516 0.999999 0.000977516 
2.78892 0 11.0766 0.000977516 0.999999 0.000977516 
0.484369 0 0.0805408 0.000977516 0.999999 0.000977516 
13.6429 0 7.6713 0.000977516 0.999999 0.000977516 
-0.99658 0 13.7961 0.000977516 0.999999 0.000977516 
8.77746 0 5.00499 0.000977516 0.999999 0.000977516 
3.34607 0 3.98372 0.000977516 0.999999 0.000977516 
-1.31612 0 3.46773 0.000977516 0.999999 0.000977516 
10.4523 0 -3.39591 0.000977516 0.999999 0.000977516 
-8.34261 0 9.76336 0.000977516 0.999999 0.000977516 
0.694498 0 0.460894 0.000977516 0.999999 0.000977516 
-9.29769 0 12.2902 0.000977516 0.999999 0.000977516 
11.5626 0 2.7826 0.000977516 0.999999 0.000977516 
9.50704 0 9.09889 0.000977516 0.999999 0.000977516 
10.4333 0 13.5157 0.000977516 0.999999 0.000977516 
11.4142 0 14.7828 0.000977516 0.999999 0.000977516 
5.72158 0 -5.40926 0.000977516 0.999999 0.000977516 
4.83504 0 11.5509 0.000977516 0.999999 0.000977516 
-2.60053 0 11.0125 0.000977516 0.999999 0.000977516 
8.91806 0 -3.06502 0.000977516 0.999999 0.000977516 
0.396699 0 -0.176967 0.000977516 0.999999 0.000977516 
4.08203 0 10.434 0.000977516 0.999999 0.000977516 
10.2267 0 4.86204 0.000977516 0.999999 0.000977516 
4.91147 0 14.908 0.000977516 0.999999 0.000977516 
0.384971 0 4.10202 0.000977516 0.999999 0.000977516 
11.1443 0 5.47301 0.000977516 0.999999 0.000977516 
5.71169 0 -1.54515 0.000977516 0.999999 0.000977516 
0.656993 0 2.43423 0.000977516 0.999999 0.000977516 
13.6003 0 8.37341 0.000977516 0.999999 0.000977516 
4.80089 0 11.9938 0.000977516 0.999999 0.000977516 
6.99564 0 -0.812716 0.000977516 0.999999 0.000977516 
13.8883 0 0.592876 0.000977516 0.999999 0.000977516 
-5.47156 0 13.8261 0.000977516 0.999999 0.000977516 
-9.18671 0 11.7819 0.000977516 0.999999 0.000977516 
7.06749 0 -2.95846 0.000977516 0.999999 0.000977516 
-0.150336 0 1.28963 0.000977516 0.999999 0.000977516 
0.301698 0 0.671229 0.000977516 0.999999 0.000977516 
8.48437 0 -2.34985 0.000977516 0.999999 0.000977516 
10.0007 0 5.17249 0.000977516 0.999999 0.000977516 
-10.0969 0 11.3051 0.000977516 0.999999 0.000977516 
0.982692 0 11.9317 0.000977516 0.999999 0.000977516 
8.89041 0 9.9584 0.000977516 0.999999 0.000977516 
8.72471 0 9.85067 0.000977516 0.999999 0.000977516 
7.92777 0 5.59608 0.000977516 0.999999 0.000977516 
-3.07806 0 10.4217 0.000977516 0.999999 0.000977516 
3.82888 0 7.87768 0.000977516 0.999999 0.000977516 
2.68255 0 2.4246 0.000977516 0.999999 0.000977516 
1.29829 0 0.745626 0.000977516 0.999999 0.000977516 
8.39802 0 3.62107 0.000977516 0.999999 0.000977516 
10.8404 0 -4.094 0.000977516 0.999999 0.000977516 
11.8845 0 -7.14901 0.000977516 0.999999 0.000977516 
1.70242 0 12.0748 0.000977516 0.999999 0.000977516 
-4.85293 0 5.96284 0.000977516 0.999999 0.000977516 
1.67978 0 13.2626 0.000977516 0.999999 0.000977516 
11.0959 0 1.42752 0.000977516 0.999999 0.000977516 
8.02874 0 10.7819 0.000977516 0.999999 0.000977516 
11.6649 0 -8.19124 0.000977516 0.999999 0.000977516 
7.12206 0 -3.95314 0.000977516 0.999999 0.000977516 
9.13104 0 6.95151 0.000977516 0.999999 0.000977516 
9.08847 0 -6.40424 0.000977516 0.999999 0.000977516 
-5.55977 0 13.5116 0.000977516 0.999999 0.000977516 
14.3006 0 -11.777 0.000977516 0.999999 0.000977516 
2.6589 0 10.8181 0.000977516 0.999999 0.000977516 
-7.48346 0 12.6505 0.000977516 0.999999 0.000977516 
-5.04982 0 14.3684 0.000977516 0.999999 0.000977516 
0.580405 0 4.65899 0.000977516 0.999999 0.000977516 
9.35354 0 8.39201 0.000977516 0.999999 0.000977516 
14.9825 0 -0.143048 0.000977516 0.999999 0.000977516 
14.1984 0 -11.9923 0.000977516 0.999999 0.000977516 
-3.62651 0 6.49254 0.000977516 0.999999 0.000977516 
10.4433 0 5.51047 0.000977516 0.999999 0.000977516 
-7.97717 0 13.3154 0.000977516 0.999999 0.000977516 
11.3311 0 2.82626 0.000977516 0.999999 0.000977516 
2.88154 0 12.6086 0.000977516 0.999999 0.000977516 
4.93585 0 4.39908 0.000977516 0.999999 0.000977516 
14.665 0 -0.436772 0.000977516 0.999999 0.000977516 
1.6412 0 0.624811 0.000977516 0.999999 0.000977516 
11.5077 0 9.60854 0.000977516 0.999999 0.000977516 
10.1946 0 1.27903 0.000977516 0.999999 0.000977516 
2.19428 0 13.3005 0.000977516 0.999999 0.000977516 
-0.754775 0 12.4386 0.000977516 0.999999 0.000977516 
1.6958 0 10.676 0.000977516 0.999999 0.000977516 
14.9671 0 -14.3931 0.000977516 0.999999 0.000977516 
10.718 0 1.94485 0.000977516 0.999999 0.000977516 
-5.54323 0 9.97906 0.000977516 0.999999 0.000977516 
14.2916 0 -0.0774512 0.000977516 0.999999 0.000977516 
7.06557 0 -4.39018 0.000977516 0.999999 0.000977516 
10.6698 0 4.56218 0.000977516 0.999999 0.000977516 
14.5864 0 11.1082 0.000977516 0.999999 0.000977516 
11.2179 0 3.54834 0.000977516 0.999999 0.000977516 
4.69496 0 12.2629 0.000977516 0.999999 0.000977516 
0.860153 0 11.3775 0.000977516 0.999999 0.000977516 
8.36095 0 4.47659 0.000977516 0.999999 0.000977516 
3.75509 0 10.252 0.000977516 0.999999 0.000977516 
11.3537 0 14.5405 0.000977516 0.999999 0.000977516 
7.67863 0 5.8005 0.000977516 0.999999 0.000977516 
9.28096 0 5.36777 0.000977516 0.999999 0.000977516 
4.32082 0 14.3261 0.000977516 0.999999 0.000977516 
10.4003 0 3.72894 0.000977516 0.999999 0.000977516 
5.2455 0 11.0639 0.000977516 0.999999 0.000977516 
10.3721 0 -10.2388 0.000977516 0.999999 0.000977516 
12.056 0 1.84793 0.000977516 0.999999 0.000977516 
9.23967 0 -8.55998 0.000977516 0.999999 0.000977516 
0.827178 0 3.75735 0.000977516 0.999999 0.000977516 
8.76339 0 -1.37485 0.000977516 0.999999 0.000977516 
-2.75872 0 8.65041 0.000977516 0.999999 0.000977516 
-8.9725 0 13.1414 0.000977516 0.999999 0.000977516 
3.6608 0 7.07193 0.000977516 0.999999 0.000977516 
9.96524 0 10.3077 0.000977516 0.999999 0.000977516 
11.1231 0 12.2002 0.000977516 0.999999 0.000977516 
-1.95047 0 2.09548 0.000977516 0.999999 0.000977516 
-8.44326 0 14.9488 0.000977516 0.999999 0.000977516 
-1.27879 0 4.50733 0.000977516 0.999999 0.000977516 
1.22607 0 3.93497 0.000977516 0.999999 0.000977516 
2.51386 0 12.5076 0.000977516 0.999999 0.000977516 
-0.552979 0 4.74445 0.000977516 0.999999 0.000977516 
11.2773 0 -8.69837 0.000977516 0.999999 0.000977516 
3.59504 0 11.5691 0.000977516 0.999999 0.000977516 
-8.18059 0 12.5618 0.000977516 0.999999 0.000977516 
5.61227 0 14.5143 0.000977516 0.999999 0.000977516 
-7.65079 0 14.2005 0.000977516 0.999999 0.000977516 
8.19012 0 1.14659 0.000977516 0.999999 0.000977516 
-10.3059 0 11.2742 0.000977516 0.999999 0.000977516 
11.0012 0 -7.38493 0.000977516 0.999999 0.000977516 
1.4019 0 11.252 0.000977516 0.999999 0.000977516 
1.0284 0 3.49127 0.000977516 0.999999 0.000977516 
14.165 0 -9.33958 0.000977516 0.999999 0.000977516 
13.6844 0 10.3296 0.000977516 0.999999 0.000977516 
-14.1321 0 14.3243 0.000977516 0.999999 0.000977516 
7.9172 0 6.23147 0.000977516 0.999999 0.000977516 
2.07446 0 13.5241 0.000977516 0.999999 0.000977516 
0.0527954 0 0.0337024 0.000977516 0.999999 0.000977516 
1.85337 0 0.593929 0.000977516 0.999999 0.000977516 
-0.590549 0 5.90798 0.000977516 0.999999 0.000977516 
-3.31736 0 13.9971 0.000977516 0.999999 0.000977516 
7.04596 0 11.7935 0.000977516 0.999999 0.000977516 
10.8994 0 -1.97404 0.000977516 0.999999 0.000977516 
10.256 0 11.7826 0.000977516 0.999999 0.000977516 
10.2016 0 -4.36322 0.000977516 0.999999 0.000977516 
-8.56137 0 13.3508 0.000977516 0.999999 0.000977516 
10.2745 0 12.1682 0.000977516 0.999999 0.000977516 
10.7083 0 -8.13355 0.000977516 0.999999 0.000977516 
3.60236 0 12.265 0.000977516 0.999999 0.000977516 
14.8688 0 -8.45728 0.000977516 0.999999 0.000977516 
9.18453 0 -4.03623 0.000977516 0.999999 0.000977516 
4.31503 0 0.392072 0.000977516 0.999999 0.000977516 
7.03566 0 7.71649 0.000977516 0.999999 0.000977516 
14.432 0 -3.29511 0.000977516 0.999999 0.000977516 
9.06449 0 -7.86404 0.000977516 0.999999 0.000977516 
4.85134 0 -1.28317 0.000977516 0.999999 0.000977516 
-3.01365 0 5.21591 0.000977516 0.999999 0.000977516 
0.603252 0 3.49648 0.000977516 0.999999 0.000977516 
-4.36293 0 6.26586 0.000977516 0.999999 0.000977516 
11.4694 0 -10.8289 0.000977516 0.999999 0.000977516 
5.22919 0 -1.43329 0.000977516 0.999999 0.000977516 
-4.10995 0 12.3821 0.000977516 0.999999 0.000977516 
13.6557 0 -1.35009 0.000977516 0.999999 0.000977516 
-6.42646 0 7.46046 0.000977516 0.999999 0.000977516 
6.31112 0 -5.36987 0.000977516 0.999999 0.000977516 
-6.2351 0 7.03815 0.000977516 0.999999 0.000977516 
11.4045 0 -3.14423 0.000977516 0.999999 0.000977516 
9.73059 0 10.5439 0.000977516 0.999999 0.000977516 
9.08083 0 4.95802 0.000977516 0.999999 0.000977516 
12.0481 0 14.6259 0.000977516 0.999999 0.000977516 
1.321 0 3.33762 0.000977516 0.999999 0.000977516 
-2.39665 0 8.73608 0.000977516 0.999999 0.000977516 
13.5678 0 0.75668 0.000977516 0.999999 0.000977516 
-13.7057 0 14.686 0.000977516 0.999999 0.000977516 
6.24443 0 -0.454849 0.000977516 0.999999 0.000977516 
2.72017 0 8.26664 0.000977516 0.999999 0.000977516 
6.76719 0 -0.499777 0.000977516 0.999999 0.000977516 
4.18091 0 0.956394 0.000977516 0.999999 0.000977516 
12.2744 0 -4.50571 0.000977516 0.999999 0.000977516 
1.71639 0 6.73536 0.000977516 0.999999 0.000977516 
3.69323 0 9.95553 0.000977516 0.999999 0.000977516 
-7.04837 0 11.5533 0.000977516 0.999999 0.000977516 
9.27561 0 -2.54662 0.000977516 0.999999 0.000977516 
-4.35733 0 9.44518 0.000977516 0.999999 0.000977516 
7.54165 0 -2.20883 0.000977516 0.999999 0.000977516 
4.01249 0 4.11417 0.000977516 0.999999 0.000977516 
4.87838 0 0.640864 0.000977516 0.999999 0.000977516 
12.2445 0 -5.22039 0.000977516 0.999999 0.000977516 
6.34111 0 14.6659 0.000977516 0.999999 0.000977516 
9.71798 0 5.67669 0.000977516 0.999999 0.000977516 
8.62693 0 -2.58981 0.000977516 0.999999 0.000977516 
1.48026 0 4.06592 0.000977516 0.999999 0.000977516 
-3.76133 0 13.6535 0.000977516 0.999999 0.000977516 
14.9731 0 -7.60612 0.000977516 0.999999 0.000977516 
-4.60546 0 8.9453 0.000977516 0.999999 0.000977516 
4.34469 0 9.25305 0.000977516 0.999999 0.000977516 
9.02988 0 4.31165 0.000977516 0.999999 0.000977516 
7.93297 0 0.569182 0.000977516 0.999999 0.000977516 
12.0977 0 13.7137 0.000977516 0.999999 0.000977516 
11.2885 0 13.4869 0.000977516 0.999999 0.000977516 
5.16239 0 -4.06431 0.000977516 0.999999 0.000977516 
-3.36644 0 5.26584 0.000977516 0.999999 0.000977516 
9.35178 0 -7.60147 0.000977516 0.999999 0.000977516 
-8.31216 0 9.21733 0.000977516 0.999999 0.000977516 
7.80255 0 -6.65097 0.000977516 0.999999 0.000977516 
8.381 0 3.4675 0.000977516 0.999999 0.000977516 
-1.35817 0 14.0346 0.000977516 0.999999 0.000977516 
6.7811 0 10.3404 0.000977516 0.999999 0.000977516 
11.4293 0 0.233108 0.000977516 0.999999 0.000977516 
2.65443 0 12.9013 0.000977516 0.999999 0.000977516 
8.18848 0 4.47191 0.000977516 0.999999 0.000977516 
13.8469 0 -13.0421 0.000977516 0.999999 0.000977516 
14.9044 0 -5.08111 0.000977516 0.999999 0.000977516 
14.99 0 -3.84118 0.000977516 0.999999 0.000977516 
-4.26006 0 13.7022 0.000977516 0.999999 0.000977516 
7.80611 0 7.47238 0.000977516 0.999999 0.000977516 
7.44346 0 13.9369 0.000977516 0.999999 0.000977516 
