ply
format ascii 1.0
comment Created by Open3D
element vertex 69
property float x
property float y
property float z
property float nx
property float ny
property float nz
end_header
2.04688 3.5275 2.85042 0.707106 0.00138377 0.707106
2.17562 3.65625 3.00885 0.707106 0.00138377 0.707106
2.075 3.555 3.15552 0.707106 0.00138377 0.707106
2.23312 3.71375 2.62093 0.707106 0.00138377 0.707106
1.69875 3.17875 3.34086 0.707106 0.00138377 0.707106
1.93 3.41 3.12878 0.707106 0.00138377 0.707106
1.95438 3.435 3.40594 0.707106 0.00138377 0.707106
2.1475 3.6275 3.37515 0.707106 0.00138377 0.707106
1.57875 3.05875 3.46361 0.707106 0.00138377 0.707106
1.81625 3.29625 3.45715 0.707106 0.00138377 0.707106
2.23375 3.71375 3.20622 0.707106 0.00138377 0.707106
2.24938 3.73 2.83261 0.707106 0.00138377 0.707106
1.78688 3.2675 3.16584 0.707106 0.00138377 0.707106
1.68375 3.1625 2.77147 0.707106 0.00138377 0.707106
1.62875 3.10875 3.02965 0.707106 0.00138377 0.707106
1.8275 3.30875 2.57819 0.707106 0.00138377 0.707106
2.08312 3.56375 2.54852 0.707106 0.00138377 0.707106
1.56188 3.0425 2.61313 0.707106 0.00138377 0.707106
1.85688 3.33625 2.85022 0.707106 0.00138377 0.707106
1.69562 3.17625 2.50611 0.707106 0.00138377 0.707106
1.54625 3.02625 3.24553 0.707106 0.00138377 0.707106
1.97375 3.4525 2.67586 0.707106 0.00138377 0.707106
1.55062 3.03 2.8491 0.707106 0.00138377 0.707106
0.049375 1.48 2.20094 0.000977516 0.000977516 0.999999
0.2225 1.48 2.49843 0.000977516 0.000977516 0.999999
0.28125 1.48 2.0048 0.000977516 0.000977516 0.999999
0.5975 1.48 2.00207 0.000977516 0.000977516 0.999999
0.454375 1.48 2.27568 0.000977516 0.000977516 0.999999
0.533125 1.48 1.72752 0.000977516 0.000977516 0.999999
0.670625 1.48 2.39982 0.000977516 0.000977516 0.999999
-0.0875 1.48 2.43455 0.000977516 0.000977516 0.999999
0.679375 1.48 1.586 0.000977516 0.000977516 0.999999
0.465 1.48 2.48557 0.000977516 0.000977516 0.999999
0.689375 1.48 2.19677 0.000977516 0.000977516 0.999999
0.2525 1.48 2.22316 0.000977516 0.000977516 0.999999
-0.293125 1.48 2.49996 0.000977516 0.000977516 0.999999
0.00375 1.48 1.52877 0.000977516 0.000977516 0.999999
-0.15625 1.48 1.80771 0.000977516 0.000977516 0.999999
0.23 1.48 1.51795 0.000977516 0.000977516 0.999999
0.109375 1.48 1.88496 0.000977516 0.000977516 0.999999
-0.103125 1.48 2.02152 0.000977516 0.000977516 0.999999
-0.208125 1.48 2.26337 0.000977516 0.000977516 0.999999
-0.204375 1.48 1.53399 0.000977516 0.000977516 0.999999
0.473125 1.48 1.53024 0.000977516 0.000977516 0.999999
0.26125 1.48 1.75419 0.000977516 0.000977516 0.999999
-0.295 1.48 1.9583 0.000977516 0.000977516 0.999999
-2.27375 0.9725 0.894005 -0.259673 0.00119665 0.965696
-2.69312 1.08625 0.599035 -0.259673 0.00119665 0.965696
-2.74125 1.1 1.43997 -0.259673 0.00119665 0.965696
-2.68 1.0825 1.21252 -0.259673 0.00119665 0.965696
-2.49625 1.0325 0.711954 -0.259673 0.00119665 0.965696
-1.99 0.89625 0.597963 -0.259673 0.00119665 0.965696
-2.70125 1.0875 0.956192 -0.259673 0.00119665 0.965696
-2.41125 1.01 0.514761 -0.259673 0.00119665 0.965696
-2.29062 0.9775 0.67764 -0.259673 0.00119665 0.965696
-2.1625 0.94375 0.508273 -0.259673 0.00119665 0.965696
-2.46562 1.02375 1.02022 -0.259673 0.00119665 0.965696
-2.10062 0.92625 0.789928 -0.259673 0.00119665 0.965696
-1.81938 0.85 0.501907 -0.259673 0.00119665 0.965696
-1.85188 0.86 1.12448 -0.259673 0.00119665 0.965696
-2.23188 0.96125 1.35072 -0.259673 0.00119665 0.965696
-1.825 0.8525 1.42869 -0.259673 0.00119665 0.965696
-2.04 0.91 1.3009 -0.259673 0.00119665 0.965696
-1.82438 0.8525 0.705849 -0.259673 0.00119665 0.965696
-2.15375 0.94125 1.10738 -0.259673 0.00119665 0.965696
-2.43875 1.0175 1.31173 -0.259673 0.00119665 0.965696
-1.99375 0.8975 0.973845 -0.259673 0.00119665 0.965696
-2.0825 0.92125 1.49919 -0.259673 0.00119665 0.965696
-2.55062 1.0475 1.48389 -0.259673 0.00119665 0.965696
