ply
format ascii 1.0
comment Created by Open3D
element vertex 44
property float x
property float y
property float z
property float nx
property float ny
property float nz
end_header
0.98625 -1.59375 1.76687 -0.707106 0.00138377 -0.707106
1.26 -1.32 2.36236 -0.707106 0.00138377 -0.707106
1.28625 -1.29375 2.00686 -0.707106 0.00138377 -0.707106
1.45188 -1.1275 2.2737 -0.707106 0.00138377 -0.707106
1.06812 -1.5125 1.9645 -0.707106 0.00138377 -0.707106
1.1 -1.48 2.19684 -0.707106 0.00138377 -0.707106
1.17875 -1.40125 1.79273 -0.707106 0.00138377 -0.707106
0.969375 -1.61125 2.37015 -0.707106 0.00138377 -0.707106
0.9425 -1.6375 1.47054 -0.707106 0.00138377 -0.707106
1.58062 -0.99875 2.36752 -0.707106 0.00138377 -0.707106
0.95125 -1.62875 2.08801 -0.707106 0.00138377 -0.707106
1.11625 -1.46375 2.39693 -0.707106 0.00138377 -0.707106
1.0575 -1.5225 1.59376 -0.707106 0.00138377 -0.707106
1.56062 -1.02 2.1058 -0.707106 0.00138377 -0.707106
1.55375 -1.025 1.61488 -0.707106 0.00138377 -0.707106
1.35438 -1.225 1.48434 -0.707106 0.00138377 -0.707106
1.4075 -1.1725 1.83111 -0.707106 0.00138377 -0.707106
1.21312 -1.36625 1.49882 -0.707106 0.00138377 -0.707106
1.31312 -1.2675 1.67554 -0.707106 0.00138377 -0.707106
1.55938 -1.02125 1.40022 -0.707106 0.00138377 -0.707106
1.61062 -0.96875 1.85506 -0.707106 0.00138377 -0.707106
1.42125 -1.15875 2.06838 -0.707106 0.00138377 -0.707106
-3.02 2.09875 1.05736 -0.999999 0.000977516 0.000977516
-3.02 2.34375 0.992105 -0.999999 0.000977516 0.000977516
-3.02 1.91875 0.688043 -0.999999 0.000977516 0.000977516
-3.02 2.14375 0.69044 -0.999999 0.000977516 0.000977516
-3.02 2.3925 1.33406 -0.999999 0.000977516 0.000977516
-3.02 2.36875 0.782038 -0.999999 0.000977516 0.000977516
-3.02 2.4 0.567638 -0.999999 0.000977516 0.000977516
-3.02 1.64875 0.614689 -0.999999 0.000977516 0.000977516
-3.02 1.94625 0.926276 -0.999999 0.000977516 0.000977516
-3.02 2.02 0.509597 -0.999999 0.000977516 0.000977516
-3.02 2.48375 1.1389 -0.999999 0.000977516 0.000977516
-3.02 2.22625 1.21904 -0.999999 0.000977516 0.000977516
-3.02 1.82 0.504127 -0.999999 0.000977516 0.000977516
-3.02 1.74375 0.931281 -0.999999 0.000977516 0.000977516
-3.02 1.79 1.2239 -0.999999 0.000977516 0.000977516
-3.02 1.55375 1.40814 -0.999999 0.000977516 0.000977516
-3.02 1.92625 1.37436 -0.999999 0.000977516 0.000977516
-3.02 1.58375 1.17478 -0.999999 0.000977516 0.000977516
-3.02 1.51375 0.979786 -0.999999 0.000977516 0.000977516
-3.02 2.18375 1.48694 -0.999999 0.000977516 0.000977516
-3.02 1.74875 1.4858 -0.999999 0.000977516 0.000977516
-3.02 1.50625 0.758696 -0.999999 0.000977516 0.000977516
