# .PCD v0.7 - Point Cloud Data file format
VERSION 0.7
FIELDS x y z
SIZE 4 4 4
TYPE F F F
COUNT 1 1 1
WIDTH 327
HEIGHT 1
VIEWPOINT 0 0 0 1 0 0 0
POINTS 327
DATA ascii
-3.0333734 6.9314079 0.25802344
-2.6917036 6.7655001 0.21057218
-2.2511351 7.0247517 0.2054628
-3.6789265 7.7892232 0.31870922
-3.2991509 7.2890229 0.21787693
-1.8046368 7.3816705 0.29763696
-1.3077872 7.7574048 0.2545788
-4.5386372 8.3260889 0.14456287
-4.0296669 8.2317924 0.2322612
-0.85464001 8.1393709 0.33633953
1.5649474 8.3209515 0.40410718
2.2820859 8.3119593 0.11801323
-4.4952822 8.8019428 0.23617488
0.88851863 8.7488136 0.23106791
1.3673402 8.526906 0.17344722
2.5533006 8.8175526 0.19583894
-4.3915615 9.1799984 0.27317226
-3.9883025 9.4690514 0.31259194
0.48090771 9.0680552 0.26811782
2.9020729 9.3830633 0.046367269
-3.7587767 9.6650553 0.21616417
-3.3343155 10.010863 0.28571275
3.1224194 9.7347469 0.14606643
-2.7958612 10.452168 0.3020612
-1.8782843 10.683312 0.45658997
-1.303893 10.369156 0.1478844
3.3749216 10.246078 0.34868798
3.6693873 10.698907 0.15297177
-3.7645435 11.28391 0.46297184
-2.2436762 10.804933 0.17254543
-0.72232008 11.246474 0.35331404
1.8242838 11.167499 0.27688599
3.9837942 11.21925 0.2527554
-3.6202679 11.880099 0.18949766
-3.1732497 11.805601 0.38267756
-2.5222664 11.831454 0.10432717
-2.2184677 11.818848 0.59030688
-1.7067991 11.846601 0.42060411
-0.39495623 11.829933 0.26529485
3.4469702 11.962193 0.35351026
3.9197464 11.664167 0.15322734
-3.628134 12.187055 0.19651796
-1.6545526 12.397386 0.27959555
-0.15059769 12.166748 0.24255185
0.023073426 12.374267 0.11546054
2.7756844 12.345197 0.21917805
3.1495016 12.136719 0.096921735
-3.6349759 12.766173 0.16188365
-1.6439101 12.862521 0.067817286
0.35037097 12.99061 0.16500357
1.6869652 13.012612 0.22200318
2.237288 12.671123 0.28464577
-3.6354864 13.468891 0.19217917
-1.5891124 13.59077 0.1961201
0.89354277 13.472829 0.13769984
1.275885 13.296429 0.27602038
-3.1481097 13.826085 0.29854497
-2.6643896 13.827257 0.29206169
-2.1963696 13.834737 0.22389235
-2.9157205 6.44768 1.144307
-2.6413116 6.8204956 0.80636042
-2.2507563 7.0274315 1.0333513
2.1786275 6.8131304 0.93956107
-3.6620533 7.7384219 0.76201242
-3.3642848 7.3686924 0.76856148
-1.5437212 7.5775695 0.78639221
-5.0030394 8.3246269 1.0335265
-4.0210133 8.2256842 0.77025479
-0.9181571 8.0459194 0.82004035
-0.41028658 8.3931828 0.62604201
1.7329849 8.2214403 0.76851106
2.1087968 8.0904226 0.91206455
-4.4513226 8.7773323 0.707973
-0.37820202 8.5611372 1.1321979
0.45032918 8.8299513 0.81036747
0.72835958 8.862175 0.91186571
1.2955654 8.5948496 0.78880668
2.5372837 8.7943926 0.95958918
-4.4055009 9.1525593 0.83275604
-3.9624262 9.4933929 0.66191477
2.8555372 9.319768 0.7763837
-4.2581253 10.096612 1.1619997
-3.7604108 9.6527557 0.76066476
-3.3182719 10.056989 0.89743406
-1.8163493 10.162341 0.75676042
-1.4361684 10.065315 0.95792508
3.2106514 9.9383478 0.81341434
-4.0263882 10.719159 0.68862963
-2.7140906 10.488125 0.86615443
-2.2353446 10.683418 0.91461217
3.5065184 10.419664 1.1158625
3.6571193 10.598372 0.79822522
-1.9082406 10.994287 0.90355343
3.9478142 11.192056 0.81993365
-3.6067209 11.898478 0.77322143
-3.3283286 11.735884 0.88767409
-2.6843123 11.778424 0.80030203
3.3110828 11.947334 0.7645424
3.9978893 11.566812 0.7826007
-3.613152 12.188936 0.87494004
-1.6426015 12.250538 0.92527741
-0.18638907 12.107535 0.86525238
2.8228707 12.31001 0.75996649
3.228925 12.075931 0.72932047
-3.6388893 12.778723 0.69676137
-1.6317934 12.854149 0.74424714
0.26184207 12.808424 0.92431879
1.7215513 13.010757 0.98134685
2.0631297 12.774235 0.90528709
-3.6303697 13.450027 0.74956584
-1.6607834 13.209592 0.75021422
-0.46694356 13.459599 0.86037397
0.45739526 13.233027 0.96408266
0.72410321 13.459936 0.78821778
1.2121782 13.300849 0.71014148
-3.2194176 13.811509 0.77970177
-2.7651742 13.820923 0.70640677
-2.2241297 13.824536 0.67673445
-1.7684815 13.812447 0.70601863
0.057604805 5.7217698 1.3396369
-3.0916138 7.0168214 1.5716062
-2.7715793 6.7329912 1.526498
-2.2883234 6.9955745 1.6902311
-3.6886435 7.7892456 1.4738476
-3.4456422 7.4698653 1.4115419
-1.8070692 7.372561 1.2654289
-1.5322596 7.5681744 1.502113
-4.0411949 8.2425156 1.487107
-0.76732701 8.1492138 1.3544478
-0.49810052 8.33148 1.4697874
1.7823167 8.1983614 1.6912733
1.9608488 8.1163988 1.4166211
-4.4724503 8.7744284 1.49224
-0.1383235 8.7362947 1.6276283
0.93185079 8.7943497 1.5093477
1.3330095 8.4879417 1.2440751
-4.3629861 9.1869192 1.4201659
0.565332 9.0093107 1.397489
-3.7325263 9.667593 1.5017909
-3.2538218 10.043489 1.4586656
3.1943531 9.8813543 1.574295
-4.0390139 10.608904 1.5264703
-2.7264683 10.452548 1.4249735
-2.0598361 10.468358 1.5512291
-1.5213913 10.497353 1.4564848
3.4458189 10.337244 1.5284724
3.7109005 10.751997 1.4796373
-0.75632334 11.212933 1.2509009
3.9869931 11.233891 1.4466718
-3.6098888 11.81023 1.271855
-3.4034939 11.790555 1.6998007
-2.7558746 11.815263 1.4719954
-1.7456481 11.724475 1.4230998
-0.32373229 11.853572 1.3898414
3.3714795 11.989607 1.7094116
3.9592357 11.60942 1.5612347
-3.6346259 12.192789 1.4775277
-1.6213197 12.25924 1.5850699
-0.13097203 12.183638 1.5020924
0.032726273 12.383683 1.3570846
2.7571273 12.351744 1.5452251
3.1420431 12.120143 1.5197237
-3.6383505 12.769954 1.4702959
-1.6315247 12.735397 1.4903086
0.30073556 12.980703 1.7273886
1.6180313 13.075506 1.2848293
2.0131083 12.804789 1.5577141
-3.6220396 13.549595 1.4012865
-2.215785 13.779094 1.2445316
-1.7051865 13.526222 1.5223416
0.71519375 13.478696 1.5399106
1.2538649 13.279267 1.529767
-3.2743912 13.808515 1.4893241
-2.7488844 13.80972 1.4443109
-2.2183549 13.80538 1.772361
-3.0261226 6.9219747 2.1890764
-2.5920115 6.7964554 2.247726
-2.1660216 7.0834613 2.2653048
-3.684783 7.7830911 2.2376325
-3.397295 7.3900895 2.1887643
-1.9067805 7.2787409 2.2294707
-1.4937987 7.5959182 2.0986404
-4.0533695 8.2536087 2.1798308
-0.83036685 8.0929241 2.3835206
1.4647926 8.0197401 2.1331027
1.9454505 8.1090527 2.2443461
-4.477109 8.8061771 2.2451291
-0.27246064 8.7067385 2.1887958
1.0526919 8.6549683 2.0736904
2.4909844 8.8156977 2.1703835
-4.4284844 9.1208525 2.0872142
-3.9554625 9.4783716 1.8432012
-0.2762872 9.3951969 2.0839233
0.46216413 9.0504723 2.0714467
2.7870569 9.180625 1.8433274
-3.7911718 9.6161013 2.2550473
-3.3276913 9.9864874 2.1282446
3.1905904 9.8815746 2.3050094
-2.6998541 10.474682 2.1657238
-2.0911987 10.60708 2.2348509
-1.7499542 10.247079 2.2286758
-1.012506 10.777678 1.9775735
3.4570796 10.30731 2.2862983
3.6708369 10.62698 2.1552913
-0.9710691 10.993595 1.9853139
4.0122232 11.253368 2.2285323
-3.014817 11.95744 2.0388029
-2.4903133 11.948246 1.9474349
-1.7355801 11.792275 1.8862461
-0.49408293 11.634371 2.179641
3.3976362 11.977118 2.2638497
3.9554782 11.648048 2.249649
-3.2832065 12.233738 1.9499358
-2.8077753 12.572975 1.9887823
-0.12202703 12.096274 2.1834278
0.05198402 12.454966 2.1482186
2.7625616 12.354442 2.2831612
3.1567574 12.094069 2.263387
-3.6279311 13.170093 1.8716942
-0.55931252 12.761372 2.3351843
0.37280381 12.989828 2.2813897
1.6132329 13.060321 2.0340466
1.9791759 12.823955 2.1199315
-3.156033 13.283413 2.0259318
0.75064361 13.488911 2.2517638
1.2868705 13.250305 2.2625086
-3.0428252 6.946908 2.6992652
-2.7111101 6.7305789 2.7022519
-2.3094399 6.9563198 2.6538312
-3.6948884 7.7888255 2.708806
-3.3843691 7.3791037 2.8078985
-1.8263886 7.3489394 2.7851691
-1.393003 7.6612806 2.6281948
-4.0202169 8.2128992 2.7605858
-0.84125996 8.0295324 2.6521287
1.7515249 8.1996908 2.5924187
2.0875888 8.0943193 2.7498088
-4.4798841 8.7757235 2.7147241
0.73187453 8.8438625 2.672353
1.2718403 8.5492792 2.7884512
2.3453708 8.6750422 2.9546411
-4.566751 9.1061935 2.7291765
-4.030983 9.4390802 2.5667875
-0.90562433 9.2870903 2.657166
-0.21350646 9.4730015 2.7958784
0.49718255 9.0269413 2.8754573
2.8289361 9.2420273 2.6002417
-3.7664447 9.6257534 2.7781789
-3.3080812 10.010773 2.8098845
-2.7597902 9.975111 2.8383553
-1.691713 9.9964523 2.8961446
3.1660194 9.8077917 2.7069206
-2.6788659 10.446992 2.7836351
-2.0531778 10.550334 2.8337264
-1.3317648 10.300081 2.6948888
-0.99530232 10.713184 2.7203984
3.4910467 10.339467 2.7871423
3.6729887 10.669682 2.7999372
-0.68363369 11.293276 2.8447824
3.9110267 11.075351 2.6998944
-0.7043674 11.537562 2.7509303
-0.33376965 11.854798 2.7510548
3.4461241 11.936729 2.7274218
4.0181527 11.578391 2.7791965
-0.10723083 12.19634 2.6557744
0.033071507 12.389857 2.6556065
1.4418852 12.187857 2.6711214
2.806931 12.323164 2.8728919
3.1529489 12.122691 2.6786704
0.34876692 12.937677 2.7981672
1.6190106 13.032013 2.7520747
2.0328333 12.786674 2.7057748
0.70676273 13.445576 2.7366233
1.2872502 13.245444 2.7812812
1.3868842 8.3573065 3.1918592
1.9892149 8.1291637 3.2771797
0.44887573 8.9999313 3.4166386
0.89822197 8.7466211 3.3946531
2.5427129 8.6490374 3.2262013
-0.30932006 9.2832632 3.3505371
0.15728951 9.1107416 3.0795603
2.7689366 9.0750856 3.1058323
3.2839806 10.013371 3.1625874
-1.2441256 10.464812 3.3420448
3.5659261 10.453711 3.2406552
3.7271962 10.748524 3.2379847
-0.80502623 11.061731 3.2426271
3.9372625 11.125833 3.2849827
-0.3928377 11.729865 3.2008362
4.0028501 11.561879 3.2039745
-0.13467506 12.148239 3.3057089
0.040719032 12.394187 3.4591217
2.8214285 12.312241 3.4079716
3.1383305 12.114463 3.1637294
0.34627506 12.930529 3.2644434
1.5985185 13.046026 3.2532868
2.0201745 12.8217 3.3016224
0.83409023 13.466393 3.2944605
1.2920158 13.224109 3.2848153
3.8509178 6.6540117 3.9842832
1.7301787 8.1513281 3.7806082
2.2243025 8.0528288 3.9074726
0.8668707 8.7983675 3.8601406
1.4398396 8.4175987 3.807265
2.5070329 8.6284103 3.927258
0.18811527 9.1924839 3.7068665
2.8897476 9.3424301 3.9360366
3.0166843 9.1856604 3.9129398
-0.73316914 9.7303047 3.9747944
3.2622046 9.9555626 3.6321588
-1.3759698 10.257984 3.7519155
-1.1581672 10.545221 3.8708079
3.6093068 10.618985 3.613049
-0.75700539 11.104922 3.854686
-0.3472563 11.759983 3.8549452
3.3652363 11.952557 3.7755609
3.992677 11.592099 3.7678652
4.2173486 11.402501 4.0022898
-0.12568136 12.124342 3.9082537
0.035560254 12.287481 4.0469093
2.7311218 12.356398 3.7140672
3.1451385 12.115488 3.7003484
0.34551594 12.919854 3.9273801
1.4243733 13.154577 3.832859
2.0556941 12.766562 3.6921852
0.59939688 13.338706 3.7474921
0.88177514 13.444252 3.9589126
