ply
format ascii 1.0
comment Created by CloudCompare v2.13.2 (Kharkiv - Jul  6 2024)
comment Created 2024-07-31T22:21:16
obj_info Generated by CloudCompare!
element vertex 797
property float x
property float y
property float z
property float nx
property float ny
property float nz
end_header
-13.499998 -6.982760 -0.805769 -0.999999 0.000978 0.000978 
-13.499998 -12.303085 -1.142004 -0.999999 0.000978 0.000978 
-13.499998 -12.292429 -0.865372 -0.999999 0.000978 0.000978 
-13.499998 -9.644125 -0.956474 -0.999999 0.000978 0.000978 
-13.499998 -9.987285 -1.742139 -0.999999 0.000978 0.000978 
-13.499998 -10.845974 -0.759057 -0.999999 0.000978 0.000978 
-13.499998 -8.028627 -1.517939 -0.999999 0.000978 0.000978 
-13.499998 -7.153922 -1.293633 -0.999999 0.000978 0.000978 
-13.499998 -6.540517 -1.363052 -0.999999 0.000978 0.000978 
-13.500000 -1.460562 -1.752811 -0.999999 0.000978 0.000978 
-13.499998 -11.951744 -0.561197 -0.999999 0.000978 0.000978 
-13.499998 -9.252548 -0.544275 -0.999999 0.000978 0.000978 
-13.499998 -10.632734 -0.824583 -0.999999 0.000978 0.000978 
-13.499998 -10.668767 -0.245329 -0.999999 0.000978 0.000978 
-13.500000 -5.259818 -1.010986 -0.999999 0.000978 0.000978 
-13.500000 -2.067629 -1.624249 -0.999999 0.000978 0.000978 
-13.499998 -8.422707 -1.611257 -0.999999 0.000978 0.000978 
-13.499998 -9.047121 -1.797439 -0.999999 0.000978 0.000978 
-13.500000 -2.727170 -1.882410 -0.999999 0.000978 0.000978 
-13.499998 -12.107795 -0.274924 -0.999999 0.000978 0.000978 
-13.499998 -11.472404 0.050170 -0.999999 0.000978 0.000978 
-13.499998 -11.320945 -0.696597 -0.999999 0.000978 0.000978 
-13.500000 -3.066044 -1.429141 -0.999999 0.000978 0.000978 
-13.499998 -11.874146 -1.011629 -0.999999 0.000978 0.000978 
-13.499998 -7.710876 -0.703825 -0.999999 0.000978 0.000978 
-13.499998 -7.871748 -1.304721 -0.999999 0.000978 0.000978 
-13.499998 -7.611279 -0.557714 -0.999999 0.000978 0.000978 
-13.499998 -10.189100 -1.171194 -0.999999 0.000978 0.000978 
-13.499998 -7.406557 -0.799453 -0.999999 0.000978 0.000978 
-13.499998 -6.736833 -0.882487 -0.999999 0.000978 0.000978 
-13.499998 -6.864286 -1.637057 -0.999999 0.000978 0.000978 
-13.499998 -12.130751 -1.107164 -0.999999 0.000978 0.000978 
-13.499998 -9.939518 -0.348598 -0.999999 0.000978 0.000978 
-13.499998 -8.457389 -1.053091 -0.999999 0.000978 0.000978 
-13.499998 -7.962346 -0.932026 -0.999999 0.000978 0.000978 
-13.499998 -9.668221 -0.744305 -0.999999 0.000978 0.000978 
-13.499998 -8.251635 -1.488655 -0.999999 0.000978 0.000978 
-13.499998 -11.691432 0.055254 -0.999999 0.000978 0.000978 
-13.499998 -9.035872 -1.141782 -0.999999 0.000978 0.000978 
-13.499998 -9.095386 -1.405375 -0.999999 0.000978 0.000978 
-13.499998 -9.376502 -1.436571 -0.999999 0.000978 0.000978 
-13.499998 -10.471743 -0.388145 -0.999999 0.000978 0.000978 
-13.500000 -5.386039 -1.102376 -0.999999 0.000978 0.000978 
-13.499998 -6.302299 -1.765393 -0.999999 0.000978 0.000978 
-13.499998 -11.060861 -1.308632 -0.999999 0.000978 0.000978 
-13.500000 -3.724192 -1.582627 -0.999999 0.000978 0.000978 
-13.499998 -12.335455 -0.021000 -0.999999 0.000978 0.000978 
-13.499998 -6.949098 -1.056199 -0.999999 0.000978 0.000978 
-13.499998 -11.689223 -1.423532 -0.999999 0.000978 0.000978 
-13.499998 -9.990241 -1.282201 -0.999999 0.000978 0.000978 
-13.499998 -12.052109 -0.423998 -0.999999 0.000978 0.000978 
-13.499998 -10.320868 -1.367136 -0.999999 0.000978 0.000978 
-13.499998 -8.799535 -0.891950 -0.999999 0.000978 0.000978 
-13.499998 -8.096106 -1.373578 -0.999999 0.000978 0.000978 
-13.500000 -5.338497 -1.314391 -0.999999 0.000978 0.000978 
-13.499998 -8.915501 -1.255287 -0.999999 0.000978 0.000978 
-13.500000 -2.177668 -1.840594 -0.999999 0.000978 0.000978 
-13.499998 -11.131191 -0.726006 -0.999999 0.000978 0.000978 
-13.499998 -8.935864 -0.789231 -0.999999 0.000978 0.000978 
-13.499998 -9.603406 -0.589115 -0.999999 0.000978 0.000978 
-13.499998 -7.804019 -0.493505 -0.999999 0.000978 0.000978 
-13.499998 -11.638891 -1.565070 -0.999999 0.000978 0.000978 
-13.499998 -6.894113 -1.274062 -0.999999 0.000978 0.000978 
-13.499998 -8.302032 -1.790731 -0.999999 0.000978 0.000978 
-13.499998 -11.100401 -1.119521 -0.999999 0.000978 0.000978 
-13.500000 -5.263303 -1.820659 -0.999999 0.000978 0.000978 
-13.499998 -9.323307 -0.944411 -0.999999 0.000978 0.000978 
-13.499998 -9.821171 -1.791974 -0.999999 0.000978 0.000978 
-13.499998 -7.948280 -1.857855 -0.999999 0.000978 0.000978 
-13.499998 -11.629188 -0.526573 -0.999999 0.000978 0.000978 
-13.499998 -9.789313 -1.009594 -0.999999 0.000978 0.000978 
-13.499998 -8.540860 -0.311055 -0.999999 0.000978 0.000978 
-13.499998 -7.176327 -1.116014 -0.999999 0.000978 0.000978 
-13.499998 -9.590942 -1.117211 -0.999999 0.000978 0.000978 
-13.500000 -6.152109 -1.659939 -0.999999 0.000978 0.000978 
-13.499998 -11.777003 -1.828671 -0.999999 0.000978 0.000978 
-13.499998 -10.914744 -1.773234 -0.999999 0.000978 0.000978 
-13.499998 -6.736919 -1.430385 -0.999999 0.000978 0.000978 
-13.499998 -9.115579 -1.662807 -0.999999 0.000978 0.000978 
-13.499998 -10.188639 -0.981895 -0.999999 0.000978 0.000978 
-13.500000 -1.974972 -1.748103 -0.999999 0.000978 0.000978 
-13.499998 -8.733714 -1.783606 -0.999999 0.000978 0.000978 
-13.499998 -10.337259 -0.600176 -0.999999 0.000978 0.000978 
-13.499998 -11.563033 -0.257163 -0.999999 0.000978 0.000978 
-13.499998 -11.766031 -0.784330 -0.999999 0.000978 0.000978 
-13.499998 -12.279942 -0.194449 -0.999999 0.000978 0.000978 
-13.500000 -2.415064 -1.878406 -0.999999 0.000978 0.000978 
-13.499998 -7.394502 -1.476089 -0.999999 0.000978 0.000978 
-13.500000 -0.704249 -1.861532 -0.999999 0.000978 0.000978 
-13.499998 -12.321260 -0.403223 -0.999999 0.000978 0.000978 
-13.499998 -12.063577 0.176809 -0.999999 0.000978 0.000978 
-13.499998 -9.446878 -0.854962 -0.999999 0.000978 0.000978 
-13.500000 -4.803958 -1.279816 -0.999999 0.000978 0.000978 
-13.499998 -12.362139 -1.645846 -0.999999 0.000978 0.000978 
-13.500000 -6.082274 -1.862795 -0.999999 0.000978 0.000978 
-13.499998 -11.673937 0.267220 -0.999999 0.000978 0.000978 
-13.499998 -9.743022 -1.603308 -0.999999 0.000978 0.000978 
-13.499998 -12.215437 0.080604 -0.999999 0.000978 0.000978 
-13.499998 -7.628454 -1.776233 -0.999999 0.000978 0.000978 
-13.499998 -10.049811 -1.110573 -0.999999 0.000978 0.000978 
-13.499998 -8.735009 -1.436914 -0.999999 0.000978 0.000978 
-13.499998 -8.132616 -1.831707 -0.999999 0.000978 0.000978 
-13.500000 -0.974603 -1.860515 -0.999999 0.000978 0.000978 
-13.499998 -9.126998 -0.775275 -0.999999 0.000978 0.000978 
-13.499998 -10.119257 -0.361986 -0.999999 0.000978 0.000978 
-13.499998 -10.243480 -0.731306 -0.999999 0.000978 0.000978 
-13.499998 -11.017806 -1.474187 -0.999999 0.000978 0.000978 
-13.499998 -7.612875 -1.283046 -0.999999 0.000978 0.000978 
-13.499998 -12.258828 -1.335514 -0.999999 0.000978 0.000978 
-13.499998 -11.240670 -0.377157 -0.999999 0.000978 0.000978 
-13.499998 -10.475391 -0.932054 -0.999999 0.000978 0.000978 
-13.500000 -1.328418 -1.862687 -0.999999 0.000978 0.000978 
-13.499998 -6.795354 -1.043201 -0.999999 0.000978 0.000978 
-13.499998 -11.724170 -1.159615 -0.999999 0.000978 0.000978 
-13.499998 -7.571076 -0.785877 -0.999999 0.000978 0.000978 
-13.499998 -6.349163 -0.839415 -0.999999 0.000978 0.000978 
-13.499998 -11.425227 -1.273954 -0.999999 0.000978 0.000978 
-13.499998 -9.921324 -0.045622 -0.999999 0.000978 0.000978 
-13.499998 -8.013247 -0.498303 -0.999999 0.000978 0.000978 
-13.499998 -6.638431 -0.736960 -0.999999 0.000978 0.000978 
-13.499998 -12.066225 0.339334 -0.999999 0.000978 0.000978 
-13.499998 -9.012692 -0.990780 -0.999999 0.000978 0.000978 
-13.499998 -12.202085 0.260002 -0.999999 0.000978 0.000978 
-13.499998 -9.807933 -0.473914 -0.999999 0.000978 0.000978 
-13.499998 -9.217243 -1.255913 -0.999999 0.000978 0.000978 
-13.499998 -7.837630 -0.843955 -0.999999 0.000978 0.000978 
-13.499998 -11.637175 -0.913694 -0.999999 0.000978 0.000978 
-13.499998 -8.178776 -0.614811 -0.999999 0.000978 0.000978 
-13.499998 -11.467051 -1.534295 -0.999999 0.000978 0.000978 
-13.499998 -11.201309 -1.239769 -0.999999 0.000978 0.000978 
-13.500000 -5.843918 -1.861461 -0.999999 0.000978 0.000978 
-13.500000 -4.453649 -1.182840 -0.999999 0.000978 0.000978 
-13.499998 -9.776895 -0.857095 -0.999999 0.000978 0.000978 
-13.499998 -10.857357 -0.099679 -0.999999 0.000978 0.000978 
-13.499998 -11.520800 -1.872513 -0.999999 0.000978 0.000978 
-13.500000 -5.447407 -0.940958 -0.999999 0.000978 0.000978 
-13.500000 -3.222544 -1.772768 -0.999999 0.000978 0.000978 
-13.499998 -10.970444 -1.023142 -0.999999 0.000978 0.000978 
-13.500000 -2.914086 -1.690703 -0.999999 0.000978 0.000978 
-13.499998 -8.568879 -0.564374 -0.999999 0.000978 0.000978 
-13.499998 -7.184031 -1.499949 -0.999999 0.000978 0.000978 
-13.499998 -11.389794 -1.736671 -0.999999 0.000978 0.000978 
-13.499998 -7.837366 -1.500079 -0.999999 0.000978 0.000978 
-13.500000 -4.217365 -1.451615 -0.999999 0.000978 0.000978 
-13.500000 -2.547845 -1.496574 -0.999999 0.000978 0.000978 
-13.499998 -8.949514 -0.421760 -0.999999 0.000978 0.000978 
-13.500000 -5.756423 -1.713269 -0.999999 0.000978 0.000978 
-13.499998 -11.627134 -0.089908 -0.999999 0.000978 0.000978 
-13.499998 -9.498766 -1.845626 -0.999999 0.000978 0.000978 
-13.499998 -8.728723 -1.254650 -0.999999 0.000978 0.000978 
-13.499998 -7.090793 -1.644370 -0.999999 0.000978 0.000978 
-13.500000 -5.849366 -1.445697 -0.999999 0.000978 0.000978 
-13.499998 -11.359817 -0.073234 -0.999999 0.000978 0.000978 
-13.500000 -4.599304 -1.269881 -0.999999 0.000978 0.000978 
-13.499998 -10.803741 -1.882433 -0.999999 0.000978 0.000978 
-13.499998 -7.429717 -1.790045 -0.999999 0.000978 0.000978 
-13.499998 -7.463702 -1.069983 -0.999999 0.000978 0.000978 
-13.499998 -11.030437 -0.066035 -0.999999 0.000978 0.000978 
-13.499998 -8.528980 -0.714016 -0.999999 0.000978 0.000978 
-13.499998 -11.650915 -1.727482 -0.999999 0.000978 0.000978 
-13.499998 -10.486983 -0.233091 -0.999999 0.000978 0.000978 
-13.499998 -10.667349 -0.973726 -0.999999 0.000978 0.000978 
-13.500000 -2.720582 -1.458410 -0.999999 0.000978 0.000978 
-13.499998 -9.493134 -1.000942 -0.999999 0.000978 0.000978 
-13.500000 -5.629592 -1.902636 -0.999999 0.000978 0.000978 
-13.500000 -6.110248 -1.176456 -0.999999 0.000978 0.000978 
-13.499998 -7.700735 -1.409027 -0.999999 0.000978 0.000978 
-13.500000 -2.295553 -1.694540 -0.999999 0.000978 0.000978 
-13.499998 -11.532508 -0.748126 -0.999999 0.000978 0.000978 
-13.500000 -1.610090 -1.781637 -0.999999 0.000978 0.000978 
-13.499998 -10.211143 0.003046 -0.999999 0.000978 0.000978 
-13.499998 -8.490092 -1.442253 -0.999999 0.000978 0.000978 
-13.499998 -7.556056 -1.453597 -0.999999 0.000978 0.000978 
-13.499998 -11.125463 0.181863 -0.999999 0.000978 0.000978 
-13.499998 -10.495362 -1.803106 -0.999999 0.000978 0.000978 
-13.499998 -10.076086 -0.630836 -0.999999 0.000978 0.000978 
-13.499998 -9.396881 -1.593159 -0.999999 0.000978 0.000978 
-13.499998 -11.320790 -1.025906 -0.999999 0.000978 0.000978 
-13.500000 -5.624495 -1.438922 -0.999999 0.000978 0.000978 
-13.499998 -8.902797 -1.433689 -0.999999 0.000978 0.000978 
-13.499998 -11.365891 0.226019 -0.999999 0.000978 0.000978 
-13.500000 -5.792978 -1.102609 -0.999999 0.000978 0.000978 
-13.500000 -4.133750 -1.301514 -0.999999 0.000978 0.000978 
-13.499998 -11.526416 -1.113227 -0.999999 0.000978 0.000978 
-13.500000 -1.979486 -1.915176 -0.999999 0.000978 0.000978 
-13.499998 -10.136174 -1.341358 -0.999999 0.000978 0.000978 
-13.499998 -11.857345 0.331407 -0.999999 0.000978 0.000978 
-13.499998 -11.944758 -0.193366 -0.999999 0.000978 0.000978 
-13.500000 -3.475979 -1.613711 -0.999999 0.000978 0.000978 
-13.499998 -10.928286 -0.377271 -0.999999 0.000978 0.000978 
-13.500000 -4.705743 -1.695449 -0.999999 0.000978 0.000978 
-13.499998 -11.885639 -0.367989 -0.999999 0.000978 0.000978 
-13.499998 -8.886419 -1.848559 -0.999999 0.000978 0.000978 
-13.499998 -9.750999 -0.318859 -0.999999 0.000978 0.000978 
-13.499998 -9.842631 -1.174380 -0.999999 0.000978 0.000978 
-13.499998 -9.181902 -1.002867 -0.999999 0.000978 0.000978 
-13.499998 -8.347831 -1.353288 -0.999999 0.000978 0.000978 
-13.500000 -3.011324 -1.840489 -0.999999 0.000978 0.000978 
-13.499998 -8.306830 -1.109480 -0.999999 0.000978 0.000978 
-13.499998 -6.740898 -1.751790 -0.999999 0.000978 0.000978 
-13.499998 -10.696049 -1.278834 -0.999999 0.000978 0.000978 
-13.499998 -10.430788 -0.727766 -0.999999 0.000978 0.000978 
-13.499998 -9.474066 -0.152214 -0.999999 0.000978 0.000978 
-13.499998 -8.695852 -0.299145 -0.999999 0.000978 0.000978 
-13.499998 -12.373051 0.169866 -0.999999 0.000978 0.000978 
-13.500000 -3.534372 -1.359254 -0.999999 0.000978 0.000978 
-13.500000 -3.392286 -1.780803 -0.999999 0.000978 0.000978 
-13.499998 -6.997344 -0.601428 -0.999999 0.000978 0.000978 
-13.499998 -9.298310 -1.883473 -0.999999 0.000978 0.000978 
-13.499998 -6.596836 -0.947603 -0.999999 0.000978 0.000978 
-13.500000 -5.174952 -1.235561 -0.999999 0.000978 0.000978 
-13.499998 -12.186234 -1.691350 -0.999999 0.000978 0.000978 
-13.499998 -8.391811 -0.389502 -0.999999 0.000978 0.000978 
-13.499998 -8.846336 -0.273102 -0.999999 0.000978 0.000978 
-13.499998 -9.940727 -0.997183 -0.999999 0.000978 0.000978 
-13.500000 -4.541587 -1.743962 -0.999999 0.000978 0.000978 
-13.500000 -4.725975 -1.858616 -0.999999 0.000978 0.000978 
-13.499998 -12.086806 -1.270808 -0.999999 0.000978 0.000978 
-13.499998 -10.174962 -1.817219 -0.999999 0.000978 0.000978 
-13.499998 -7.077055 -0.966486 -0.999999 0.000978 0.000978 
-13.500000 -3.410265 -1.473065 -0.999999 0.000978 0.000978 
-13.500000 -2.547562 -1.729700 -0.999999 0.000978 0.000978 
-13.500000 -4.384897 -1.657827 -0.999999 0.000978 0.000978 
-13.500000 -5.739898 -1.312505 -0.999999 0.000978 0.000978 
-13.499998 -8.124352 -0.981760 -0.999999 0.000978 0.000978 
-13.499998 -9.864851 -1.399876 -0.999999 0.000978 0.000978 
-13.499998 -9.115918 -0.355225 -0.999999 0.000978 0.000978 
-13.500000 -3.286878 -1.909492 -0.999999 0.000978 0.000978 
-13.499998 -11.993178 -1.904134 -0.999999 0.000978 0.000978 
-13.499998 -9.823451 -0.699444 -0.999999 0.000978 0.000978 
-13.500000 -4.823644 -1.068497 -0.999999 0.000978 0.000978 
-13.499998 -9.322641 -0.410717 -0.999999 0.000978 0.000978 
-13.500000 -3.884609 -1.863853 -0.999999 0.000978 0.000978 
-13.499998 -11.576694 -1.312354 -0.999999 0.000978 0.000978 
-13.500000 -4.259105 -1.838048 -0.999999 0.000978 0.000978 
-13.499998 -11.248871 -0.532752 -0.999999 0.000978 0.000978 
-13.500000 -0.533571 0.225089 -0.999999 0.000978 0.000978 
-13.499998 -8.693748 0.178672 -0.999999 0.000978 0.000978 
-13.500000 -0.491479 -0.793246 -0.999999 0.000978 0.000978 
-13.499998 -8.325567 -0.154912 -0.999999 0.000978 0.000978 
-13.500000 -0.168615 -0.172098 -0.999999 0.000978 0.000978 
-13.499998 -8.653569 0.484925 -0.999999 0.000978 0.000978 
-13.500000 -2.440980 0.293812 -0.999999 0.000978 0.000978 
-13.500000 -3.105140 -1.148856 -0.999999 0.000978 0.000978 
-13.499998 -5.776193 -0.598641 -0.999999 0.000978 0.000978 
-13.500000 -2.097225 -0.866186 -0.999999 0.000978 0.000978 
-13.499998 -5.589415 0.020232 -0.999999 0.000978 0.000978 
-13.500000 -1.765468 -0.192781 -0.999999 0.000978 0.000978 
-13.499998 -7.267880 -0.406923 -0.999999 0.000978 0.000978 
-13.500000 -1.905296 0.198871 -0.999999 0.000978 0.000978 
-13.500000 -1.318772 -1.584921 -0.999999 0.000978 0.000978 
-13.499998 -10.455057 0.190782 -0.999999 0.000978 0.000978 
-13.499998 -7.497648 0.239422 -0.999999 0.000978 0.000978 
-13.500000 -0.685039 -0.299979 -0.999999 0.000978 0.000978 
-13.500000 -4.271275 0.251788 -0.999999 0.000978 0.000978 
-13.500000 -0.373134 -1.690777 -0.999999 0.000978 0.000978 
-13.499998 -3.254399 -0.523698 -0.999999 0.000978 0.000978 
-13.500000 -3.954398 -0.769995 -0.999999 0.000978 0.000978 
-13.499998 -7.809686 0.038532 -0.999999 0.000978 0.000978 
-13.499998 -9.187134 0.273798 -0.999999 0.000978 0.000978 
-13.500000 -0.952568 -1.644601 -0.999999 0.000978 0.000978 
-13.500000 -0.522874 -0.034720 -0.999999 0.000978 0.000978 
-13.499998 -3.287466 -0.293724 -0.999999 0.000978 0.000978 
-13.499998 -10.956987 0.342806 -0.999999 0.000978 0.000978 
-13.499998 -8.552442 0.298515 -0.999999 0.000978 0.000978 
-13.500000 -1.812434 0.448908 -0.999999 0.000978 0.000978 
-13.499998 -4.028410 -0.396233 -0.999999 0.000978 0.000978 
-13.499998 -5.985118 0.413558 -0.999999 0.000978 0.000978 
-13.500000 -3.765315 0.396270 -0.999999 0.000978 0.000978 
-13.499998 -6.931779 -0.267513 -0.999999 0.000978 0.000978 
-13.499998 -5.085096 -0.650065 -0.999999 0.000978 0.000978 
-13.499998 -0.805547 -0.745251 -0.999999 0.000978 0.000978 
-13.500000 -2.821893 -1.227639 -0.999999 0.000978 0.000978 
-13.499998 -1.040762 -0.564574 -0.999999 0.000978 0.000978 
-13.499998 -6.728300 0.286506 -0.999999 0.000978 0.000978 
-13.500000 -0.854816 -1.079267 -0.999999 0.000978 0.000978 
-13.500000 -3.900789 0.216272 -0.999999 0.000978 0.000978 
-13.500000 -0.255270 -1.558325 -0.999999 0.000978 0.000978 
-13.499998 -7.390176 -0.282953 -0.999999 0.000978 0.000978 
-13.500000 -0.346092 -1.096050 -0.999999 0.000978 0.000978 
-13.500000 -3.718281 -1.048692 -0.999999 0.000978 0.000978 
-13.500000 -4.391303 -0.923526 -0.999999 0.000978 0.000978 
-13.500000 -3.301432 -0.021603 -0.999999 0.000978 0.000978 
-13.499998 -6.603897 -0.199180 -0.999999 0.000978 0.000978 
-13.500000 -2.858420 0.295851 -0.999999 0.000978 0.000978 
-13.499998 -2.530496 -0.403281 -0.999999 0.000978 0.000978 
-13.500000 -2.078152 -1.137757 -0.999999 0.000978 0.000978 
-13.499998 -3.689485 -0.463331 -0.999999 0.000978 0.000978 
-13.500000 -4.660737 -0.871375 -0.999999 0.000978 0.000978 
-13.500000 -0.027072 -0.538501 -0.999999 0.000978 0.000978 
-13.500000 -3.976306 -0.957023 -0.999999 0.000978 0.000978 
-13.499998 -1.897122 -0.421516 -0.999999 0.000978 0.000978 
-13.500000 -1.288134 0.227301 -0.999999 0.000978 0.000978 
-13.500000 -1.804282 0.078169 -0.999999 0.000978 0.000978 
-13.500000 -0.053962 -1.721798 -0.999999 0.000978 0.000978 
-13.500000 -3.591640 0.407553 -0.999999 0.000978 0.000978 
-13.499998 -7.377553 0.028233 -0.999999 0.000978 0.000978 
-13.500000 -0.298322 -0.439602 -0.999999 0.000978 0.000978 
-13.499998 -3.107096 -0.585446 -0.999999 0.000978 0.000978 
-13.500000 -3.234454 -0.763266 -0.999999 0.000978 0.000978 
-13.499998 -9.238883 0.035587 -0.999999 0.000978 0.000978 
-13.499998 -9.945494 0.393129 -0.999999 0.000978 0.000978 
-13.499998 -4.570457 -0.726506 -0.999999 0.000978 0.000978 
-13.500000 -1.120037 0.447507 -0.999999 0.000978 0.000978 
-13.499998 -8.634837 -0.045373 -0.999999 0.000978 0.000978 
-13.499998 -2.078644 -0.412368 -0.999999 0.000978 0.000978 
-13.500000 -0.519304 -1.803413 -0.999999 0.000978 0.000978 
-13.500000 -2.860672 -0.903518 -0.999999 0.000978 0.000978 
-13.499998 -5.982239 -0.499901 -0.999999 0.000978 0.000978 
-13.500000 -2.500312 -1.104323 -0.999999 0.000978 0.000978 
-13.500000 -0.932718 -0.894838 -0.999999 0.000978 0.000978 
-13.500000 -0.259070 0.108058 -0.999999 0.000978 0.000978 
-13.499998 -7.627732 -0.272551 -0.999999 0.000978 0.000978 
-13.499998 -3.578203 -0.111339 -0.999999 0.000978 0.000978 
-13.499998 -5.202336 -0.297867 -0.999999 0.000978 0.000978 
-13.500000 -1.753430 -0.797126 -0.999999 0.000978 0.000978 
-13.499998 -8.980337 -0.015589 -0.999999 0.000978 0.000978 
-13.499998 -3.055607 -0.377196 -0.999999 0.000978 0.000978 
-13.499998 -9.739172 0.349756 -0.999999 0.000978 0.000978 
-13.499998 -7.539310 -0.114081 -0.999999 0.000978 0.000978 
-13.499998 -9.574805 0.425233 -0.999999 0.000978 0.000978 
-13.499998 -0.216274 -0.711514 -0.999999 0.000978 0.000978 
-13.500000 -1.342497 -1.153667 -0.999999 0.000978 0.000978 
-13.500000 -0.828037 0.432487 -0.999999 0.000978 0.000978 
-13.500000 -5.086648 0.472120 -0.999999 0.000978 0.000978 
-13.499998 -6.813789 0.024564 -0.999999 0.000978 0.000978 
-13.499998 -9.441356 0.308204 -0.999999 0.000978 0.000978 
-13.500000 -1.584499 0.218823 -0.999999 0.000978 0.000978 
-13.500000 -5.147263 -0.871842 -0.999999 0.000978 0.000978 
-13.500000 -1.556798 -1.375643 -0.999999 0.000978 0.000978 
-13.499998 -7.831100 -0.163799 -0.999999 0.000978 0.000978 
-13.500000 -0.662418 -1.690248 -0.999999 0.000978 0.000978 
-13.499998 -2.291655 -0.668909 -0.999999 0.000978 0.000978 
-13.500000 -0.981253 -0.364153 -0.999999 0.000978 0.000978 
-13.500000 -0.009228 0.282426 -0.999999 0.000978 0.000978 
-13.500000 -0.358022 -0.880124 -0.999999 0.000978 0.000978 
-13.499998 -7.416853 0.430160 -0.999999 0.000978 0.000978 
-13.500000 -1.316891 -0.756598 -0.999999 0.000978 0.000978 
-13.499998 -4.144074 -0.725380 -0.999999 0.000978 0.000978 
-13.500000 -2.494296 0.097004 -0.999999 0.000978 0.000978 
-13.500000 -0.653652 -1.052084 -0.999999 0.000978 0.000978 
-13.500000 -4.461335 0.292229 -0.999999 0.000978 0.000978 
-13.500000 -2.128905 0.383124 -0.999999 0.000978 0.000978 
-13.499998 -10.233843 0.273635 -0.999999 0.000978 0.000978 
-13.500000 -1.916816 -1.554005 -0.999999 0.000978 0.000978 
-13.500000 -3.054308 -0.032925 -0.999999 0.000978 0.000978 
-13.500000 -3.493476 -0.900393 -0.999999 0.000978 0.000978 
-13.500000 -2.715988 0.191194 -0.999999 0.000978 0.000978 
-13.500000 -1.617672 -1.216140 -0.999999 0.000978 0.000978 
-13.500000 -5.483282 0.349700 -0.999999 0.000978 0.000978 
-13.499998 -6.511467 0.335912 -0.999999 0.000978 0.000978 
-13.499998 -8.877490 0.243510 -0.999999 0.000978 0.000978 
-13.499998 -5.618367 -0.371244 -0.999999 0.000978 0.000978 
-13.499998 -7.302309 0.275939 -0.999999 0.000978 0.000978 
-13.500000 -3.293894 0.217714 -0.999999 0.000978 0.000978 
-13.499998 -8.131504 0.094357 -0.999999 0.000978 0.000978 
-13.499998 -4.122143 -0.013316 -0.999999 0.000978 0.000978 
-13.500000 -0.723716 -1.481159 -0.999999 0.000978 0.000978 
-13.499998 -5.984907 -0.059532 -0.999999 0.000978 0.000978 
-13.499998 -6.389338 0.188541 -0.999999 0.000978 0.000978 
-13.500000 -0.480023 0.435093 -0.999999 0.000978 0.000978 
-13.500000 -0.676224 -1.216012 -0.999999 0.000978 0.000978 
-13.499998 -7.095425 -0.005663 -0.999999 0.000978 0.000978 
-13.499998 -6.353197 -0.041682 -0.999999 0.000978 0.000978 
-13.499998 -10.789673 0.416519 -0.999999 0.000978 0.000978 
-13.500000 -0.013405 -1.180685 -0.999999 0.000978 0.000978 
-13.500000 -5.308635 0.466449 -0.999999 0.000978 0.000978 
-13.499998 -6.356989 -0.339368 -0.999999 0.000978 0.000978 
-13.500000 -2.555199 -0.124850 -0.999999 0.000978 0.000978 
-13.499998 -4.250435 -0.308027 -0.999999 0.000978 0.000978 
-13.499998 -4.825160 -0.574698 -0.999999 0.000978 0.000978 
-13.499998 -8.071002 0.448456 -0.999999 0.000978 0.000978 
-13.500000 -1.355971 -0.975534 -0.999999 0.000978 0.000978 
-13.499998 -5.267836 -0.031816 -0.999999 0.000978 0.000978 
-13.499998 -8.292275 0.374042 -0.999999 0.000978 0.000978 
-13.500000 -3.799473 -0.894326 -0.999999 0.000978 0.000978 
-13.500000 -1.168384 0.042356 -0.999999 0.000978 0.000978 
-13.500000 -1.004368 0.327855 -0.999999 0.000978 0.000978 
-13.499998 -9.272759 0.432284 -0.999999 0.000978 0.000978 
-13.500000 -1.299156 -0.469036 -0.999999 0.000978 0.000978 
-13.499998 -8.278678 0.147846 -0.999999 0.000978 0.000978 
-13.499998 -3.449708 -0.299007 -0.999999 0.000978 0.000978 
-13.499998 -5.321726 -0.551746 -0.999999 0.000978 0.000978 
-13.499998 -4.516171 -0.375041 -0.999999 0.000978 0.000978 
-13.499998 -6.876532 0.172798 -0.999999 0.000978 0.000978 
-13.499998 -2.772525 -0.514764 -0.999999 0.000978 0.000978 
-13.499998 -5.697598 -0.106238 -0.999999 0.000978 0.000978 
-13.499998 -3.875003 -0.370023 -0.999999 0.000978 0.000978 
-13.499998 -4.911311 -0.091791 -0.999999 0.000978 0.000978 
-13.499998 -4.182086 -0.574533 -0.999999 0.000978 0.000978 
-13.499998 -5.737801 0.285950 -0.999999 0.000978 0.000978 
-13.500000 -0.916385 -1.282256 -0.999999 0.000978 0.000978 
-13.499998 -1.712162 -0.595803 -0.999999 0.000978 0.000978 
-13.499998 -2.736357 -0.738769 -0.999999 0.000978 0.000978 
-13.499998 -2.275308 -0.345332 -0.999999 0.000978 0.000978 
-13.500000 -2.077499 0.144713 -0.999999 0.000978 0.000978 
-13.500000 -1.285958 -1.422364 -0.999999 0.000978 0.000978 
-13.500000 -1.445925 -0.215260 -0.999999 0.000978 0.000978 
-13.500000 -0.814554 0.121330 -0.999999 0.000978 0.000978 
-13.499998 -8.364312 0.013017 -0.999999 0.000978 0.000978 
-13.499998 -4.624604 -0.243548 -0.999999 0.000978 0.000978 
-13.499998 -4.881423 -0.394916 -0.999999 0.000978 0.000978 
-13.500000 -0.448650 -0.449019 -0.999999 0.000978 0.000978 
-13.499998 -5.083579 0.151446 -0.999999 0.000978 0.000978 
-13.499998 -6.281007 0.475702 -0.999999 0.000978 0.000978 
-13.499998 -4.535869 0.150290 -0.999999 0.000978 0.000978 
-13.499998 -7.686845 0.225633 -0.999999 0.000978 0.000978 
-13.499998 -2.947143 -0.163288 -0.999999 0.000978 0.000978 
-13.500000 -4.911584 0.270282 -0.999999 0.000978 0.000978 
-13.500000 -2.399737 -0.989973 -0.999999 0.000978 0.000978 
-13.500000 -1.752837 -1.292350 -0.999999 0.000978 0.000978 
-13.500000 -0.965084 0.176325 -0.999999 0.000978 0.000978 
-13.500000 -0.829230 -0.566857 -0.999999 0.000978 0.000978 
-13.499998 -1.646219 -0.437513 -0.999999 0.000978 0.000978 
-13.499998 -1.065697 -0.736005 -0.999999 0.000978 0.000978 
-13.499998 -6.495074 0.021918 -0.999999 0.000978 0.000978 
-13.500000 -1.073187 -0.169914 -0.999999 0.000978 0.000978 
-13.500000 -3.369439 -1.009149 -0.999999 0.000978 0.000978 
-13.500000 -0.174762 0.290499 -0.999999 0.000978 0.000978 
-13.499998 -9.038205 0.350407 -0.999999 0.000978 0.000978 
-13.499998 -10.391616 0.385476 -0.999999 0.000978 0.000978 
-13.500000 -4.248091 0.451612 -0.999999 0.000978 0.000978 
-13.500000 -2.789161 -0.075114 -0.999999 0.000978 0.000978 
-13.500000 -0.813470 -0.065007 -0.999999 0.000978 0.000978 
-13.500000 -2.074926 -0.220076 -0.999999 0.000978 0.000978 
-13.499998 -6.181628 -0.530048 -0.999999 0.000978 0.000978 
-13.500000 -0.106185 0.472842 -0.999999 0.000978 0.000978 
-13.500000 -5.433208 -0.763414 -0.999999 0.000978 0.000978 
-13.500000 -2.228088 -1.486156 -0.999999 0.000978 0.000978 
-13.499998 -5.837803 0.073557 -0.999999 0.000978 0.000978 
-13.499998 -2.483293 -0.738156 -0.999999 0.000978 0.000978 
-13.500000 -0.031335 -0.751091 -0.999999 0.000978 0.000978 
-13.499998 -4.864310 -0.234259 -0.999999 0.000978 0.000978 
-13.500000 -3.595828 0.133109 -0.999999 0.000978 0.000978 
-13.499998 -10.172233 0.472557 -0.999999 0.000978 0.000978 
-13.500000 -1.979623 -0.971806 -0.999999 0.000978 0.000978 
-13.499998 -9.580874 0.062492 -0.999999 0.000978 0.000978 
-13.500000 -1.332835 0.489451 -0.999999 0.000978 0.000978 
-13.499998 -5.485850 -0.491048 -0.999999 0.000978 0.000978 
-13.499998 -3.887043 -0.612237 -0.999999 0.000978 0.000978 
-13.500000 -4.769156 0.370021 -0.999999 0.000978 0.000978 
-13.499998 -7.987811 0.197878 -0.999999 0.000978 0.000978 
-13.500000 -1.147468 -1.107608 -0.999999 0.000978 0.000978 
-13.499998 -5.094389 -0.166478 -0.999999 0.000978 0.000978 
-13.500000 -2.688513 -1.033555 -0.999999 0.000978 0.000978 
-13.500000 -0.016665 -1.354927 -0.999999 0.000978 0.000978 
-13.500000 -3.018024 0.275579 -0.999999 0.000978 0.000978 
-13.500000 -0.193207 -0.949006 -0.999999 0.000978 0.000978 
-13.500000 -4.638795 0.476830 -0.999999 0.000978 0.000978 
-13.500000 -5.951048 -0.806439 -0.999999 0.000978 0.000978 
-13.500000 -1.925803 -0.090130 -0.999999 0.000978 0.000978 
-13.500000 -1.131713 -1.569092 -0.999999 0.000978 0.000978 
-13.499998 -6.740206 -0.272725 -0.999999 0.000978 0.000978 
-13.499998 -2.885240 -0.337952 -0.999999 0.000978 0.000978 
-13.499998 -3.791875 -0.147504 -0.999999 0.000978 0.000978 
-13.499998 -5.865714 -0.163427 -0.999999 0.000978 0.000978 
-13.500000 -2.249968 0.273612 -0.999999 0.000978 0.000978 
-13.499998 -6.566859 0.482964 -0.999999 0.000978 0.000978 
-13.500000 -0.652560 -0.130151 -0.999999 0.000978 0.000978 
-13.499998 -5.817913 -0.405232 -0.999999 0.000978 0.000978 
-13.499998 -11.385683 0.444915 -0.999999 0.000978 0.000978 
-13.500000 -0.709682 0.275293 -0.999999 0.000978 0.000978 
-13.500000 -0.056650 0.037282 -0.999999 0.000978 0.000978 
-13.500000 -1.099012 -1.398397 -0.999999 0.000978 0.000978 
-13.500000 -2.095853 -0.031357 -0.999999 0.000978 0.000978 
-13.500000 -1.638960 -0.903724 -0.999999 0.000978 0.000978 
-13.499998 -6.624231 -0.453689 -0.999999 0.000978 0.000978 
-13.500000 -1.307715 -0.274152 -0.999999 0.000978 0.000978 
-13.499998 -6.698926 0.130346 -0.999999 0.000978 0.000978 
-13.499998 -9.615456 0.227695 -0.999999 0.000978 0.000978 
-13.499998 -7.765646 0.388003 -0.999999 0.000978 0.000978 
-13.499998 -5.565008 -0.684253 -0.999999 0.000978 0.000978 
-13.500000 -1.013187 -0.006364 -0.999999 0.000978 0.000978 
-13.499998 -7.035189 0.159119 -0.999999 0.000978 0.000978 
-13.500000 -4.990435 -0.859703 -0.999999 0.000978 0.000978 
-13.500000 -3.952481 0.405815 -0.999999 0.000978 0.000978 
-13.500000 -4.106532 0.324096 -0.999999 0.000978 0.000978 
-13.499998 -5.374714 0.131425 -0.999999 0.000978 0.000978 
-13.500000 -3.417941 -1.167964 -0.999999 0.000978 0.000978 
-13.499998 -4.010937 -0.179047 -0.999999 0.000978 0.000978 
-13.500000 -2.076495 -1.325696 -0.999999 0.000978 0.000978 
-13.499998 -6.116164 -0.199475 -0.999999 0.000978 0.000978 
-13.500000 -3.584714 -0.780804 -0.999999 0.000978 0.000978 
-13.499998 -7.093728 -0.300736 -0.999999 0.000978 0.000978 
-13.499998 -6.191860 -0.722621 -0.999999 0.000978 0.000978 
-13.500000 -2.326206 -0.140074 -0.999999 0.000978 0.000978 
-13.500000 -2.309730 -1.318725 -0.999999 0.000978 0.000978 
-13.499998 -11.045555 0.479134 -0.999999 0.000978 0.000978 
-13.499998 -5.464278 -0.173279 -0.999999 0.000978 0.000978 
-13.500000 -2.922452 -1.062355 -0.999999 0.000978 0.000978 
-13.499998 -10.640369 0.348653 -0.999999 0.000978 0.000978 
-13.500000 -0.358875 -1.351848 -0.999999 0.000978 0.000978 
-13.500000 -3.135462 0.386046 -0.999999 0.000978 0.000978 
-13.499998 -8.008945 -0.304036 -0.999999 0.000978 0.000978 
-13.500000 -1.186164 -0.902382 -0.999999 0.000978 0.000978 
-13.500000 -0.006564 -0.128384 -0.999999 0.000978 0.000978 
-13.499998 -1.213456 -0.641805 -0.999999 0.000978 0.000978 
-13.499998 -6.204887 -0.377428 -0.999999 0.000978 0.000978 
-13.500000 -2.330180 0.497274 -0.999999 0.000978 0.000978 
-13.499998 -6.227859 0.048862 -0.999999 0.000978 0.000978 
-13.499998 -2.227249 -0.504422 -0.999999 0.000978 0.000978 
-13.499998 -4.541594 -0.088063 -0.999999 0.000978 0.000978 
-13.500000 -1.609858 -0.079961 -0.999999 0.000978 0.000978 
-13.500000 -1.306664 -0.059100 -0.999999 0.000978 0.000978 
-13.500000 -4.834305 -0.808029 -0.999999 0.000978 0.000978 
-13.499998 -4.898808 0.101222 -0.999999 0.000978 0.000978 
-13.500000 -4.332191 -0.772776 -0.999999 0.000978 0.000978 
-13.499998 -7.142384 0.284053 -0.999999 0.000978 0.000978 
-13.499998 -1.859800 -0.647095 -0.999999 0.000978 0.000978 
-13.500000 -1.161461 -0.399972 -0.999999 0.000978 0.000978 
-13.500000 -0.559110 -1.366176 -0.999999 0.000978 0.000978 
-13.499998 -2.867709 -0.656228 -0.999999 0.000978 0.000978 
-13.499998 -4.696144 -0.463779 -0.999999 0.000978 0.000978 
-13.499998 -7.604763 0.371026 -0.999999 0.000978 0.000978 
-13.499998 -7.977649 -0.054867 -0.999999 0.000978 0.000978 
-13.500000 -2.636456 0.368452 -0.999999 0.000978 0.000978 
-13.499998 -7.576163 0.082663 -0.999999 0.000978 0.000978 
-13.499998 -8.834234 0.473994 -0.999999 0.000978 0.000978 
-13.499998 -5.940380 0.250086 -0.999999 0.000978 0.000978 
-13.499998 -5.986983 -0.651770 -0.999999 0.000978 0.000978 
-13.499998 -6.551446 0.166706 -0.999999 0.000978 0.000978 
-13.500000 -4.133052 -0.929595 -0.999999 0.000978 0.000978 
-13.500000 -2.485101 -1.260526 -0.999999 0.000978 0.000978 
-13.499998 -7.149206 0.482289 -0.999999 0.000978 0.000978 
-13.500000 -1.391064 0.346136 -0.999999 0.000978 0.000978 
-13.500000 -2.336258 0.018248 -0.999999 0.000978 0.000978 
-13.500000 -1.651142 0.405013 -0.999999 0.000978 0.000978 
-13.499998 -2.700338 -0.343776 -0.999999 0.000978 0.000978 
-13.500000 -1.431570 -1.464870 -0.999999 0.000978 0.000978 
-13.500000 -3.168470 0.071382 -0.999999 0.000978 0.000978 
-13.499998 -6.385367 -0.656442 -0.999999 0.000978 0.000978 
-13.500000 -1.784448 -1.019043 -0.999999 0.000978 0.000978 
-13.500000 -0.399703 -0.242140 -0.999999 0.000978 0.000978 
-13.500000 -4.229417 -1.094554 -0.999999 0.000978 0.000978 
-13.500000 -0.306539 -0.056159 -0.999999 0.000978 0.000978 
-13.499998 -4.349799 -0.430291 -0.999999 0.000978 0.000978 
-13.499998 -9.814960 0.090929 -0.999999 0.000978 0.000978 
-13.500000 -0.288093 -1.831569 -0.999999 0.000978 0.000978 
-13.500000 -3.987930 0.068874 -0.999999 0.000978 0.000978 
-13.500000 -0.038429 -1.877980 -0.999999 0.000978 0.000978 
-13.499998 -6.828929 -0.483182 -0.999999 0.000978 0.000978 
-13.499998 -8.200340 -0.328236 -0.999999 0.000978 0.000978 
-13.499998 -7.446445 -0.431415 -0.999999 0.000978 0.000978 
-13.499998 -3.739315 -0.645818 -0.999999 0.000978 0.000978 
-13.499998 -8.484274 0.107592 -0.999999 0.000978 0.000978 
-13.499998 -4.372884 -0.598726 -0.999999 0.000978 0.000978 
-13.499998 -9.006127 0.165479 -0.999999 0.000978 0.000978 
-13.500000 -0.399354 -0.600409 -0.999999 0.000978 0.000978 
-13.499998 -10.069226 0.094158 -0.999999 0.000978 0.000978 
-13.500000 -3.140303 -0.971548 -0.999999 0.000978 0.000978 
-13.499998 -3.112281 -0.228051 -0.999999 0.000978 0.000978 
-13.500000 -3.161662 -1.302016 -0.999999 0.000978 0.000978 
-13.500000 -1.068370 -1.249798 -0.999999 0.000978 0.000978 
-13.499998 -7.293257 -0.137454 -0.999999 0.000978 0.000978 
-13.499998 -1.516642 -0.538606 -0.999999 0.000978 0.000978 
-13.500000 -3.426368 0.293898 -0.999999 0.000978 0.000978 
-13.500000 -0.059731 -0.348472 -0.999999 0.000978 0.000978 
-13.499998 -3.406296 -0.475014 -0.999999 0.000978 0.000978 
-13.500000 -2.973041 0.452172 -0.999999 0.000978 0.000978 
-13.499998 -11.205318 0.354584 -0.999999 0.000978 0.000978 
-13.499998 -6.974509 -0.437632 -0.999999 0.000978 0.000978 
-13.499998 -11.654059 0.423783 -0.999999 0.000978 0.000978 
-13.500000 -0.945544 -1.432084 -0.999999 0.000978 0.000978 
-13.499998 -3.491235 -0.608407 -0.999999 0.000978 0.000978 
-13.500000 -3.042175 -0.796033 -0.999999 0.000978 0.000978 
-13.499998 -9.404841 0.053208 -0.999999 0.000978 0.000978 
-13.499998 -7.860219 -0.348559 -0.999999 0.000978 0.000978 
-13.499998 -4.991451 -0.520112 -0.999999 0.000978 0.000978 
-13.500000 -1.530463 -1.028001 -0.999999 0.000978 0.000978 
-13.500000 -1.629914 -0.281276 -0.999999 0.000978 0.000978 
-13.499998 -2.390152 -0.554786 -0.999999 0.000978 0.000978 
-13.499998 -4.383446 -0.188903 -0.999999 0.000978 0.000978 
-13.500000 -2.657829 0.026211 -0.999999 0.000978 0.000978 
-13.500000 -2.602533 -0.904430 -0.999999 0.000978 0.000978 
-13.499998 -6.155677 0.348806 -0.999999 0.000978 0.000978 
-13.499998 -4.722561 0.008016 -0.999999 0.000978 0.000978 
-13.500000 -0.051374 -1.008253 -0.999999 0.000978 0.000978 
-13.499998 -4.346262 0.079334 -0.999999 0.000978 0.000978 
-13.499998 -12.182902 0.497030 -0.999999 0.000978 0.000978 
-13.500000 -5.183106 0.317421 -0.999999 0.000978 0.000978 
-13.499998 -5.959465 -0.325815 -0.999999 0.000978 0.000978 
-13.499998 -7.138051 -0.504798 -0.999999 0.000978 0.000978 
-13.499998 -7.052504 -0.151838 -0.999999 0.000978 0.000978 
-13.500000 -1.540345 -1.588270 -0.999999 0.000978 0.000978 
-13.499998 -9.886954 0.225202 -0.999999 0.000978 0.000978 
-13.500000 -0.670441 -0.862776 -0.999999 0.000978 0.000978 
-13.499998 -9.151774 -0.093583 -0.999999 0.000978 0.000978 
-13.499998 -5.560327 0.216219 -0.999999 0.000978 0.000978 
-13.500000 -0.356369 0.319904 -0.999999 0.000978 0.000978 
-13.500000 -3.462106 0.031776 -0.999999 0.000978 0.000978 
-13.500000 -0.225743 -1.272715 -0.999999 0.000978 0.000978 
-13.500000 -0.638829 0.461260 -0.999999 0.000978 0.000978 
-13.499998 -11.950345 0.460908 -0.999999 0.000978 0.000978 
-13.499998 -7.684142 -0.060094 -0.999999 0.000978 0.000978 
-13.499998 -9.429801 0.480151 -0.999999 0.000978 0.000978 
-13.500000 -0.672694 -0.527803 -0.999999 0.000978 0.000978 
-13.500000 -1.940523 -0.821253 -0.999999 0.000978 0.000978 
-13.500000 -0.479561 -1.015282 -0.999999 0.000978 0.000978 
-13.500000 -2.334052 -0.844425 -0.999999 0.000978 0.000978 
-13.500000 -1.914393 -1.307582 -0.999999 0.000978 0.000978 
-13.500000 -1.694567 -1.556648 -0.999999 0.000978 0.000978 
-13.500000 -1.474604 -0.768885 -0.999999 0.000978 0.000978 
-13.500000 -0.514867 -1.559606 -0.999999 0.000978 0.000978 
-13.500000 -3.577027 -1.180542 -0.999999 0.000978 0.000978 
-13.499998 -3.610475 -0.265036 -0.999999 0.000978 0.000978 
-13.499998 -10.519782 0.495413 -0.999999 0.000978 0.000978 
-13.499998 -5.049003 -0.012916 -0.999999 0.000978 0.000978 
-13.500000 -2.967897 0.119784 -0.999999 0.000978 0.000978 
-13.499998 -6.560334 -0.596002 -0.999999 0.000978 0.000978 
-13.500000 -5.593207 0.493497 -0.999999 0.000978 0.000978 
-13.500000 -3.277591 0.473812 -0.999999 0.000978 0.000978 
-13.500000 -0.520572 -1.170736 -0.999999 0.000978 0.000978 
-13.500000 -2.235060 -1.094264 -0.999999 0.000978 0.000978 
-13.500000 -5.782369 0.452039 -0.999999 0.000978 0.000978 
-13.500000 -1.130450 0.220689 -0.999999 0.000978 0.000978 
-13.500000 -1.748896 0.281694 -0.999999 0.000978 0.000978 
-13.499998 -3.390964 -0.746561 -0.999999 0.000978 0.000978 
-13.500000 -0.142925 -1.448246 -0.999999 0.000978 0.000978 
-13.499998 -6.065442 0.131629 -0.999999 0.000978 0.000978 
-13.499998 -5.163122 -0.451109 -0.999999 0.000978 0.000978 
-13.499998 -2.594501 -0.612722 -0.999999 0.000978 0.000978 
-13.499998 -2.044349 -0.694703 -0.999999 0.000978 0.000978 
-13.499998 -8.480279 0.483601 -0.999999 0.000978 0.000978 
-13.500000 -4.421378 0.464061 -0.999999 0.000978 0.000978 
-13.500000 -0.834647 -0.254717 -0.999999 0.000978 0.000978 
-13.499998 -6.891192 0.392490 -0.999999 0.000978 0.000978 
-13.499998 -8.492226 -0.155686 -0.999999 0.000978 0.000978 
-13.500000 -4.132769 0.174358 -0.999999 0.000978 0.000978 
-13.499998 -8.148136 -0.120845 -0.999999 0.000978 0.000978 
-13.499998 -7.906845 0.333177 -0.999999 0.000978 0.000978 
-13.500000 -0.414957 0.070220 -0.999999 0.000978 0.000978 
-13.499998 -8.744894 0.331735 -0.999999 0.000978 0.000978 
-13.499998 -4.190166 -0.154778 -0.999999 0.000978 0.000978 
-13.499998 -6.770330 0.499531 -0.999999 0.000978 0.000978 
-13.500000 -0.280805 0.473511 -0.999999 0.000978 0.000978 
-13.500000 -3.771949 0.012578 -0.999999 0.000978 0.000978 
-13.500000 -2.972919 -1.231158 -0.999999 0.000978 0.000978 
-13.500000 -3.452192 0.465610 -0.999999 0.000978 0.000978 
-13.500000 -3.322966 -1.306690 -0.999999 0.000978 0.000978 
-13.499998 -5.382949 -0.329752 -0.999999 0.000978 0.000978 
-13.499998 -2.962436 -0.509002 -0.999999 0.000978 0.000978 
-13.500000 -2.658740 -1.211024 -0.999999 0.000978 0.000978 
-13.500000 -4.749128 0.209935 -0.999999 0.000978 0.000978 
-13.500000 -1.541015 0.062007 -0.999999 0.000978 0.000978 
-13.499998 -1.383416 -0.614287 -0.999999 0.000978 0.000978 
-13.500000 -4.051624 -1.126166 -0.999999 0.000978 0.000978 
-13.500000 -0.818827 -1.755948 -0.999999 0.000978 0.000978 
-13.499998 -8.119048 0.302145 -0.999999 0.000978 0.000978 
-13.499998 -8.787768 -0.045972 -0.999999 0.000978 0.000978 
-13.499998 -6.467497 -0.454296 -0.999999 0.000978 0.000978 
-13.499998 -6.737368 -0.121211 -0.999999 0.000978 0.000978 
-13.500000 -1.225116 -1.281018 -0.999999 0.000978 0.000978 
-13.500000 -1.911658 -1.122395 -0.999999 0.000978 0.000978 
-13.499998 -11.752559 0.994340 -0.999999 0.000978 0.000978 
-13.500000 -5.208289 1.249516 -0.999999 0.000978 0.000978 
-13.499998 -11.477345 2.344214 -0.999999 0.000978 0.000978 
-13.500000 -6.192630 0.707719 -0.999999 0.000978 0.000978 
-13.500000 -4.754790 0.670408 -0.999999 0.000978 0.000978 
-13.499998 -9.265020 1.911835 -0.999999 0.000978 0.000978 
-13.499998 -9.076168 1.886262 -0.999999 0.000978 0.000978 
-13.499998 -10.657774 1.464495 -0.999999 0.000978 0.000978 
-13.500000 -5.648682 1.558975 -0.999999 0.000978 0.000978 
-13.499998 -9.514973 2.058251 -0.999999 0.000978 0.000978 
-13.499998 -7.046788 1.876567 -0.999999 0.000978 0.000978 
-13.500000 -5.097299 0.801602 -0.999999 0.000978 0.000978 
-13.500000 -5.556013 1.040422 -0.999999 0.000978 0.000978 
-13.499998 -9.404990 0.939109 -0.999999 0.000978 0.000978 
-13.499998 -8.997133 2.034466 -0.999999 0.000978 0.000978 
-13.499998 -7.001757 0.536323 -0.999999 0.000978 0.000978 
-13.499998 -10.587873 2.581303 -0.999999 0.000978 0.000978 
-13.499998 -8.699406 1.358307 -0.999999 0.000978 0.000978 
-13.499998 -8.905452 1.473230 -0.999999 0.000978 0.000978 
-13.499998 -7.812982 0.669813 -0.999999 0.000978 0.000978 
-13.499998 -7.830682 1.059743 -0.999999 0.000978 0.000978 
-13.499998 -10.992671 2.142335 -0.999999 0.000978 0.000978 
-13.499998 -9.575906 0.600327 -0.999999 0.000978 0.000978 
-13.499998 -10.516531 1.271281 -0.999999 0.000978 0.000978 
-13.499998 -9.340524 2.191471 -0.999999 0.000978 0.000978 
-13.499998 -11.569259 1.739662 -0.999999 0.000978 0.000978 
-13.499998 -11.483348 1.930584 -0.999999 0.000978 0.000978 
-13.500000 -4.919553 1.132609 -0.999999 0.000978 0.000978 
-13.499998 -11.954526 1.068053 -0.999999 0.000978 0.000978 
-13.499998 -10.444061 0.694476 -0.999999 0.000978 0.000978 
-13.499998 -10.786948 0.857692 -0.999999 0.000978 0.000978 
-13.499998 -8.149397 1.017450 -0.999999 0.000978 0.000978 
-13.500000 -3.595099 1.184188 -0.999999 0.000978 0.000978 
-13.499998 -9.119063 1.347145 -0.999999 0.000978 0.000978 
-13.500000 -6.057456 1.556606 -0.999999 0.000978 0.000978 
-13.499998 -9.935474 2.132766 -0.999999 0.000978 0.000978 
-13.499998 -11.118510 2.349383 -0.999999 0.000978 0.000978 
-13.499998 -12.140962 1.760159 -0.999999 0.000978 0.000978 
-13.499998 -9.033574 1.583724 -0.999999 0.000978 0.000978 
-13.499998 -10.813970 2.273418 -0.999999 0.000978 0.000978 
-13.499998 -8.533601 1.214423 -0.999999 0.000978 0.000978 
-13.499998 -10.814832 2.543475 -0.999999 0.000978 0.000978 
-13.499998 -7.448806 1.143496 -0.999999 0.000978 0.000978 
-13.499998 -11.351444 1.625861 -0.999999 0.000978 0.000978 
-13.499998 -10.470150 2.093079 -0.999999 0.000978 0.000978 
-13.499998 -6.690702 1.588684 -0.999999 0.000978 0.000978 
-13.499998 -8.319556 1.641145 -0.999999 0.000978 0.000978 
-13.499998 -9.920995 1.092304 -0.999999 0.000978 0.000978 
-13.499998 -6.453669 1.103022 -0.999999 0.000978 0.000978 
-13.499998 -9.335963 1.702916 -0.999999 0.000978 0.000978 
-13.499998 -11.708615 0.797062 -0.999999 0.000978 0.000978 
-13.500000 -2.732986 0.600890 -0.999999 0.000978 0.000978 
-13.499998 -7.879966 2.023363 -0.999999 0.000978 0.000978 
-13.499998 -8.693158 2.141159 -0.999999 0.000978 0.000978 
-13.499998 -6.439283 0.887672 -0.999999 0.000978 0.000978 
-13.499998 -11.140330 2.575381 -0.999999 0.000978 0.000978 
-13.500000 -4.083323 0.553284 -0.999999 0.000978 0.000978 
-13.499998 -7.128161 0.916973 -0.999999 0.000978 0.000978 
-13.499998 -11.750383 2.321337 -0.999999 0.000978 0.000978 
-13.500000 -3.441733 0.942765 -0.999999 0.000978 0.000978 
-13.499998 -10.724003 1.835240 -0.999999 0.000978 0.000978 
-13.499998 -6.673655 0.757078 -0.999999 0.000978 0.000978 
-13.499998 -9.389067 1.558094 -0.999999 0.000978 0.000978 
-13.499998 -6.351684 0.715674 -0.999999 0.000978 0.000978 
-13.500000 -4.530760 1.194514 -0.999999 0.000978 0.000978 
-13.499998 -12.012344 1.857304 -0.999999 0.000978 0.000978 
-13.500000 -4.248575 0.836928 -0.999999 0.000978 0.000978 
-13.499998 -9.888408 0.609334 -0.999999 0.000978 0.000978 
-13.499998 -8.855525 1.303276 -0.999999 0.000978 0.000978 
-13.499998 -9.674732 0.732210 -0.999999 0.000978 0.000978 
-13.500000 -5.578893 0.785813 -0.999999 0.000978 0.000978 
-13.499998 -9.486574 1.359164 -0.999999 0.000978 0.000978 
-13.500000 -5.396991 1.531944 -0.999999 0.000978 0.000978 
-13.499998 -11.021292 1.021885 -0.999999 0.000978 0.000978 
-13.500000 -2.136410 0.882108 -0.999999 0.000978 0.000978 
-13.499998 -8.700753 1.912439 -0.999999 0.000978 0.000978 
-13.500000 -1.975193 0.831293 -0.999999 0.000978 0.000978 
-13.500000 -4.358554 1.358486 -0.999999 0.000978 0.000978 
-13.499998 -8.834189 0.820668 -0.999999 0.000978 0.000978 
-13.500000 -4.878993 1.450163 -0.999999 0.000978 0.000978 
-13.500000 -3.552162 0.650582 -0.999999 0.000978 0.000978 
-13.499998 -8.448802 1.956352 -0.999999 0.000978 0.000978 
-13.499998 -6.917182 1.528795 -0.999999 0.000978 0.000978 
-13.499998 -11.729773 2.510923 -0.999999 0.000978 0.000978 
-13.500000 -3.771821 0.913903 -0.999999 0.000978 0.000978 
-13.500000 -4.655156 0.803545 -0.999999 0.000978 0.000978 
-13.499998 -10.137343 0.776412 -0.999999 0.000978 0.000978 
-13.499998 -11.975857 2.464993 -0.999999 0.000978 0.000978 
-13.500000 -2.184235 0.726470 -0.999999 0.000978 0.000978 
-13.499998 -10.546699 2.358483 -0.999999 0.000978 0.000978 
-13.499998 -11.973241 0.843263 -0.999999 0.000978 0.000978 
-13.499998 -10.186970 2.114379 -0.999999 0.000978 0.000978 
-13.499998 -7.004419 1.074137 -0.999999 0.000978 0.000978 
-13.499998 -10.581335 0.972763 -0.999999 0.000978 0.000978 
-13.500000 -2.870702 0.704986 -0.999999 0.000978 0.000978 
-13.499998 -8.626466 0.757045 -0.999999 0.000978 0.000978 
-13.499998 -9.809943 0.846567 -0.999999 0.000978 0.000978 
-13.499998 -8.703579 1.153048 -0.999999 0.000978 0.000978 
-13.499998 -11.528822 2.120108 -0.999999 0.000978 0.000978 
-13.499998 -7.920104 1.281582 -0.999999 0.000978 0.000978 
-13.499998 -11.605370 2.603514 -0.999999 0.000978 0.000978 
-13.499998 -7.207568 1.207057 -0.999999 0.000978 0.000978 
-13.500000 -5.819847 1.307037 -0.999999 0.000978 0.000978 
-13.500000 -6.235217 1.195880 -0.999999 0.000978 0.000978 
-13.499998 -11.580311 0.667457 -0.999999 0.000978 0.000978 
-13.499998 -9.616141 1.886792 -0.999999 0.000978 0.000978 
-13.499998 -7.017936 1.652857 -0.999999 0.000978 0.000978 
-13.499998 -10.379081 1.388580 -0.999999 0.000978 0.000978 
-13.499998 -10.612950 1.685518 -0.999999 0.000978 0.000978 
-13.499998 -11.796221 1.570124 -0.999999 0.000978 0.000978 
-13.499998 -10.028330 1.972802 -0.999999 0.000978 0.000978 
-13.499998 -11.233060 1.434172 -0.999999 0.000978 0.000978 
-13.499998 -8.288515 1.350182 -0.999999 0.000978 0.000978 
-13.499998 -11.108272 0.754602 -0.999999 0.000978 0.000978 
-13.499998 -12.230715 1.999222 -0.999999 0.000978 0.000978 
-13.499998 -10.925702 0.733431 -0.999999 0.000978 0.000978 
-13.500000 -5.762428 0.681006 -0.999999 0.000978 0.000978 
-13.499998 -10.161391 2.514829 -0.999999 0.000978 0.000978 
-13.499998 -11.245701 1.276715 -0.999999 0.000978 0.000978 
-13.499998 -8.171914 1.751912 -0.999999 0.000978 0.000978 
-13.499998 -7.528554 1.977081 -0.999999 0.000978 0.000978 
-13.499998 -10.314643 1.946369 -0.999999 0.000978 0.000978 
-13.499998 -7.482835 1.635775 -0.999999 0.000978 0.000978 
-13.499998 -11.473150 0.786522 -0.999999 0.000978 0.000978 
-13.499998 -8.610771 0.987507 -0.999999 0.000978 0.000978 
-13.499998 -6.805944 0.954698 -0.999999 0.000978 0.000978 
-13.499998 -10.282293 0.628027 -0.999999 0.000978 0.000978 
-13.499998 -10.680710 0.561513 -0.999999 0.000978 0.000978 
-13.499998 -12.023211 2.149366 -0.999999 0.000978 0.000978 
-13.500000 -4.697349 1.062635 -0.999999 0.000978 0.000978 
-13.499998 -7.340320 1.922476 -0.999999 0.000978 0.000978 
-13.499998 -6.656388 1.756598 -0.999999 0.000978 0.000978 
-13.499998 -12.037458 0.700598 -0.999999 0.000978 0.000978 
-13.499998 -9.733425 1.059667 -0.999999 0.000978 0.000978 
-13.499998 -11.785936 1.979782 -0.999999 0.000978 0.000978 
-13.499998 -11.882893 1.388998 -0.999999 0.000978 0.000978 
-13.499998 -6.554200 1.504031 -0.999999 0.000978 0.000978 
-13.499998 -8.327176 2.089385 -0.999999 0.000978 0.000978 
-13.500000 -1.209901 0.690717 -0.999999 0.000978 0.000978 
-13.499998 -7.366241 0.788660 -0.999999 0.000978 0.000978 
-13.499998 -7.033483 0.767090 -0.999999 0.000978 0.000978 
-13.500000 -5.186098 1.519006 -0.999999 0.000978 0.000978 
-13.499998 -12.323491 2.215908 -0.999999 0.000978 0.000978 
-13.499998 -10.724966 1.225628 -0.999999 0.000978 0.000978 
